# .PCD v0.7 - Point Cloud Data file format
VERSION 0.7
FIELDS x y z
SIZE 4 4 4
TYPE F F F
COUNT 1 1 1
WIDTH 813
HEIGHT 1
VIEWPOINT 0 0 0 1 0 0 0
POINTS 813
DATA ascii
-0.074937165 0.16790095 -0.053454552
-0.073112011 0.16592853 -0.053504203
-0.074785769 0.17402364 -0.053621311
-0.072125733 0.16931771 -0.054008115
-0.078154206 0.15938936 -0.044556592
-0.07629019 0.15581517 -0.045594532
-0.085292816 0.17396176 -0.043177325
-0.078475773 0.16644989 -0.046994891
-0.072984159 0.16236126 -0.04857171
-0.08180654 0.17818038 -0.04672588
-0.075368464 0.17450295 -0.048149351
-0.071848631 0.16881761 -0.049506966
-0.07870394 0.14818399 -0.034343708
-0.079369903 0.15841348 -0.037018437
-0.076153338 0.15249614 -0.037902404
-0.086170077 0.17176403 -0.036056716
-0.078826964 0.16625266 -0.03688715
-0.071502566 0.16189635 -0.038286392
-0.082371116 0.17569977 -0.039301116
-0.076423705 0.17203043 -0.039217528
-0.031852424 0.037626117 -0.029941324
-0.029672801 0.037084907 -0.030613411
-0.029253244 0.041693002 -0.029934745
-0.026996791 0.040185332 -0.030287329
-0.01485008 0.053046912 -0.031053048
-0.026686311 0.070478648 -0.030909929
-0.021130025 0.064271092 -0.033095408
-0.01340735 0.05854401 -0.033995468
-0.0048432946 0.055111319 -0.033170287
0.0020139217 0.053866029 -0.032652427
-0.030709147 0.0824655 -0.031357151
-0.02610749 0.077175736 -0.035045747
-0.017506301 0.072326094 -0.037932228
-0.0087969303 0.067332774 -0.036773775
-6.5565109e-07 0.06221813 -0.034715403
0.0068357587 0.059322447 -0.033153493
-0.02789259 0.08985585 -0.03309134
-0.021034956 0.086140335 -0.038071703
-0.012788236 0.08109951 -0.038767103
-0.0039749146 0.075915813 -0.037145231
0.0049098134 0.070750207 -0.035283942
0.010839105 0.066243738 -0.033454318
-0.022880077 0.096487612 -0.031886507
-0.015803277 0.094909042 -0.03579687
-0.0073915124 0.089598984 -0.037979912
0.001524806 0.084183067 -0.036874186
0.010325432 0.079043001 -0.034850631
0.015157938 0.07421729 -0.033614073
-0.078396976 0.14715379 -0.027697612
-0.01035738 0.099934906 -0.032409903
-0.0020231605 0.097706586 -0.034311529
0.0070158839 0.093150079 -0.03419577
0.012665987 0.087485403 -0.033419993
-0.086820126 0.1639168 -0.026143741
-0.081179023 0.15783867 -0.027662177
-0.073826075 0.15087897 -0.028436441
0.0046690702 0.10037053 -0.031836029
0.0089904666 0.097836792 -0.032256473
-0.0850209 0.16833043 -0.02761421
-0.076685488 0.1682272 -0.027509663
-0.070199311 0.16066816 -0.028287891
-0.038633466 0.043044001 -0.019139972
-0.03689909 0.037445843 -0.023815993
-0.02809006 0.035582006 -0.025028434
-0.03775686 0.044454813 -0.019191016
-0.031723857 0.045904398 -0.025139365
-0.022205651 0.040424705 -0.027788792
-0.014268756 0.037918061 -0.025874373
-0.024852037 0.054680079 -0.02393559
-0.018506467 0.049601316 -0.028778765
-0.0096449256 0.044642359 -0.028446648
-0.0011864305 0.040171713 -0.026178394
0.007279098 0.039629519 -0.025065515
-0.058573425 0.089049459 -0.016458888
-0.054744303 0.083964795 -0.017623197
-0.047726452 0.081742525 -0.01789913
-0.032430351 0.075178176 -0.020802949
-0.029066503 0.069205314 -0.023742069
-0.025218189 0.061706007 -0.026183773
-0.019909322 0.056761503 -0.029943611
-0.0041821003 0.049875021 -0.030335385
0.0044509172 0.047723323 -0.028400715
0.013296902 0.043772995 -0.026460391
0.019756496 0.043446422 -0.024760935
-0.056481898 0.096038282 -0.017037112
-0.050520897 0.092414081 -0.018504966
-0.041893959 0.087399602 -0.019405019
-0.033519626 0.081715226 -0.023434769
-0.030691206 0.075544298 -0.027341764
0.010023475 0.055662364 -0.031518329
0.018231869 0.051808089 -0.028092068
0.023341 0.049169719 -0.025314499
-0.052134454 0.10251135 -0.016957831
-0.045186341 0.10070801 -0.018408772
-0.036694467 0.095691949 -0.021103125
-0.030716658 0.092160285 -0.025032308
0.015903533 0.065018475 -0.032398846
0.023177922 0.060685128 -0.02951565
0.028875709 0.05871731 -0.025728989
-0.039571643 0.10662061 -0.017612312
-0.031666219 0.10432547 -0.020507235
-0.02359879 0.10033357 -0.024529751
-0.016805351 0.10074717 -0.02765641
0.016210496 0.081054062 -0.032670368
0.020306051 0.074057162 -0.031855945
0.027370155 0.069177836 -0.027754899
-0.080579937 0.14945915 -0.015368987
-0.077862263 0.14603619 -0.018626828
-0.071475148 0.143971 -0.015108686
-0.025704324 0.11018869 -0.019952927
-0.018137217 0.10826677 -0.021796364
-0.0097677708 0.10388243 -0.025819879
-0.0014907718 0.10263965 -0.028861511
0.017589331 0.088080883 -0.03143229
0.025055468 0.082739949 -0.028987352
0.030021071 0.078094393 -0.02629346
-0.08545965 0.1626257 -0.020231467
-0.082578838 0.15668961 -0.017178003
-0.068934023 0.15126175 -0.019880522
-0.068989635 0.14820477 -0.017872345
-0.011618555 0.11349733 -0.021037322
-0.0042765737 0.11151199 -0.022260766
0.0037770867 0.10595697 -0.02464414
0.012333155 0.10150096 -0.027781632
0.020949841 0.096299857 -0.027895365
0.0282408 0.090904176 -0.025918413
-0.083942771 0.16549397 -0.020153467
-0.077261686 0.16547246 -0.017513979
-0.06958884 0.15954751 -0.018457633
0.0015688539 0.11587693 -0.021049801
0.0076418519 0.11159529 -0.021816205
0.016915023 0.10760564 -0.024076652
0.024023533 0.10263214 -0.024297033
0.029230893 0.098422527 -0.023811404
-0.031194329 0.17710313 -0.017101411
-0.02587086 0.17344591 -0.018736076
-0.018813491 0.170451 -0.01966342
-0.0282951 0.18439706 -0.018998254
-0.021747947 0.18077509 -0.022694472
-0.017608285 0.17471366 -0.02228323
-0.025094509 0.18871561 -0.019588273
-0.021636605 0.18613678 -0.024168219
-0.047718048 0.034933448 -0.0095252432
-0.041249394 0.033953547 -0.011638794
-0.042001426 0.041003823 -0.011483554
-0.036502123 0.035842538 -0.0147692
-0.028882325 0.036759764 -0.018149305
-0.070247173 0.073967069 -0.0066832267
-0.062847614 0.069122314 -0.0078933276
-0.057216823 0.066385567 -0.0076471008
-0.044094861 0.057938278 -0.0088142268
-0.037512779 0.050121158 -0.011015665
-0.031903446 0.048178852 -0.014309485
-0.022029817 0.040252745 -0.01589768
-0.013819277 0.039527714 -0.0189027
-0.075039744 0.085076481 -0.0072742514
-0.068794489 0.079777449 -0.011079151
-0.060057878 0.074972689 -0.013571892
-0.051155329 0.070055008 -0.011892755
-0.042531192 0.064587563 -0.011419211
-0.033233881 0.059706271 -0.010981876
-0.027442098 0.055454761 -0.014633719
-0.0085456371 0.041673541 -0.016270962
0.00015991926 0.040927291 -0.018284712
0.0073577762 0.039479971 -0.021105792
-0.076002002 0.097604454 -0.0047889836
-0.072000623 0.093591452 -0.0090354197
-0.064036906 0.08823961 -0.013794128
-0.058220267 0.080967754 -0.015781324
-0.045876145 0.077130795 -0.015918758
-0.038072348 0.073446602 -0.015714657
-0.030856848 0.06687665 -0.015821155
-0.027279794 0.061398268 -0.018842738
0.0061104298 0.043535143 -0.015848506
0.013123333 0.041190326 -0.017957907
0.021329165 0.041582704 -0.018999767
-0.07173872 0.10563934 -0.0051730461
-0.066907585 0.10204741 -0.0099725537
-0.060567677 0.097972751 -0.014201824
-0.036184192 0.079481989 -0.017677341
0.025358975 0.047821552 -0.01998264
-0.067306757 0.11214279 -0.005241733
-0.061744153 0.11089873 -0.0097001456
-0.054163873 0.10672483 -0.014621463
0.031709671 0.0565148 -0.020374749
-0.055716097 0.11785077 -0.008239653
-0.048436403 0.11426325 -0.012456093
-0.040215075 0.11106715 -0.015767012
-0.033103466 0.10986732 -0.01706757
0.032170177 0.067857593 -0.023894366
0.03555125 0.064433277 -0.019602854
-0.080789328 0.14959614 -0.0072875805
-0.077739775 0.14379136 -0.0078322552
-0.0702703 0.14198528 -0.0077564009
-0.050071478 0.12269557 -0.0065420009
-0.043442667 0.12098029 -0.0088427998
-0.034483492 0.11745608 -0.011896167
-0.026751816 0.11466904 -0.015852671
-0.019362152 0.11415049 -0.018673133
0.035480857 0.077516317 -0.021789331
0.039768577 0.073036581 -0.017762434
-0.081672549 0.15639724 -0.0074090548
-0.068386197 0.15370862 -0.0072300769
-0.06745106 0.14715421 -0.0087726526
-0.028241336 0.12101981 -0.0092452504
-0.020614862 0.12018573 -0.01274756
-0.012996495 0.11781304 -0.017018426
-0.0049778223 0.11703604 -0.019544799
0.03329283 0.091522545 -0.023301031
0.03787899 0.086186022 -0.019216131
0.04192239 0.078831375 -0.016173977
-0.075946808 0.16175582 -0.0088639073
-0.070555508 0.15816845 -0.0094025321
-0.013740122 0.12463008 -0.010366414
-0.0069369674 0.1239865 -0.013095748
0.0010256767 0.12114939 -0.018063057
0.010105789 0.11599125 -0.020139169
0.019119263 0.11191861 -0.020347174
0.028041303 0.10583013 -0.020855282
0.035476863 0.099609256 -0.019216362
0.040228248 0.093974024 -0.017557386
-0.048222125 0.1640185 -0.0056583919
-0.043733478 0.16006403 -0.0072060414
-0.037320614 0.15837744 -0.0074282624
-0.00087410212 0.12757705 -0.010746952
0.0061795115 0.12634486 -0.013850998
0.014813066 0.12276088 -0.015385214
0.023067951 0.11746565 -0.015990634
0.030870199 0.1118826 -0.016312402
0.035688639 0.10708568 -0.015382629
-0.045313179 0.17065333 -0.0068164207
-0.0403229 0.16751002 -0.010620546
-0.031515896 0.16299362 -0.010558371
-0.023881912 0.16262679 -0.0091703497
-0.040698051 0.1773766 -0.007488776
-0.034752369 0.17611517 -0.011410434
-0.026685655 0.17065148 -0.012360532
-0.019892037 0.16715151 -0.012718219
-0.030250907 0.1844801 -0.011433203
-0.02397126 0.17804538 -0.015300166
-0.018038988 0.17274731 -0.016679127
-0.026802421 0.1893464 -0.015491601
-0.060224473 0.032518208 -0.00043870881
-0.06224376 0.038588107 0.0030432232
-0.056878984 0.038288802 -0.0030977391
-0.049190044 0.033177435 -0.003427323
-0.040889204 0.033586293 -0.0036809035
-0.050528169 0.046536922 -0.0020038076
-0.046088696 0.044501752 -0.0070094652
-0.035195112 0.035351217 -0.0047216006
-0.078921556 0.077614665 0.0021646842
-0.073137522 0.071358532 -0.00050551817
-0.064112306 0.064706415 -0.00050691143
-0.054962993 0.061042339 -0.0012657866
-0.048419774 0.05516845 -0.0037322678
-0.042598665 0.050174117 -0.0075789951
-0.028122783 0.039698362 -0.0049214102
-0.021223426 0.040390521 -0.0053960122
-0.01399833 0.041208088 -0.0060837008
-0.082291424 0.089335978 0.0026601627
-0.079007745 0.084063083 -0.0015774705
-0.051132202 0.064446718 -0.006631773
-0.0075534582 0.042050779 -0.0066735856
0.00066226721 0.043109417 -0.0073654838
-0.081370592 0.10497811 0.0055532828
-0.080386817 0.098629236 0.0011875965
0.0065680146 0.043795109 -0.0082829632
0.014360905 0.041381508 -0.0087472536
0.022463202 0.040965855 -0.0098393373
-0.087325931 0.11823718 0.0058329031
-0.081886888 0.11256067 0.0040378496
-0.076027274 0.10759181 -0.00044120476
0.028805792 0.045606047 -0.010366123
0.036440849 0.046126574 -0.0071208514
-0.085123241 0.12509173 0.0043749437
-0.078309 0.12058087 -0.0002095364
-0.070237994 0.11603893 -0.002756115
0.035024703 0.053755611 -0.012229126
0.041528642 0.050568908 -0.0091373883
-0.083705127 0.14068949 0.0068781078
-0.08134532 0.13433288 0.00316846
-0.07326597 0.12922542 -0.0018052422
-0.064675808 0.12416279 -0.0029011331
-0.057833195 0.12174848 -0.0035710521
0.040364861 0.062577814 -0.012944441
0.047270358 0.0587143 -0.011706386
0.053689778 0.05710718 -0.0083648153
-0.081315637 0.14794032 0.0030986331
-0.078795612 0.14191324 0.00020259619
-0.067619503 0.13777189 -0.0013001673
-0.059155941 0.13318145 0.000234887
-0.051091671 0.12715423 -0.00032997131
-0.041739583 0.12580302 -0.0026018135
-0.03486383 0.12246674 -0.005702246
0.044692636 0.072178811 -0.010958333
0.052358866 0.067233324 -0.010971088
0.057385027 0.063445568 -0.0087793581
-0.078574061 0.15461773 0.0016987585
-0.070691705 0.15314972 0.0017111972
-0.063303769 0.14599775 0.0023838207
-0.05611527 0.1421282 0.0036936812
-0.037181735 0.12649688 0.00052620843
-0.028675914 0.12464909 -0.0024577938
-0.020830333 0.12489383 -0.0059437938
0.04341203 0.086121231 -0.012523208
0.045710981 0.08081454 -0.0096334331
0.055815518 0.073088139 -0.0081882365
0.059593379 0.069029748 -0.0080127753
-0.057058334 0.15496115 0.0022236072
-0.04903537 0.15035518 6.4469874e-05
-0.042542458 0.15014257 0.0018672496
-0.014215827 0.12878045 -0.0036142729
-0.0072687864 0.12914477 -0.0080413856
0.040618479 0.10173234 -0.013156783
0.044434249 0.09465009 -0.010134887
-0.052875519 0.16366315 -0.00036130473
-0.045338869 0.15653205 -0.0035228319
-0.036475003 0.15491176 -0.0011895858
-0.0079749227 0.13223407 -0.0013876595
-0.0014330745 0.13165669 -0.0048966743
0.0076808929 0.13091208 -0.0072803088
0.017074525 0.12690708 -0.010255437
0.026255906 0.12136143 -0.011247482
0.034827471 0.11497933 -0.0097586699
0.040283978 0.10727894 -0.0092861392
0.04466325 0.10137755 -0.006630715
-0.047186792 0.17189355 0.00019104406
-0.038486719 0.16737776 0.00039933249
-0.029916525 0.16166836 -0.0017463788
-0.024279952 0.16154914 -0.0051348768
0.012144387 0.13251923 -0.0032710768
0.019487381 0.12895699 -0.0053907149
0.027690113 0.12410089 -0.0063373782
0.033560038 0.11962019 -0.0057875849
-0.041036367 0.17733236 -0.0016345456
-0.035777628 0.17640905 -0.0026164204
-0.026500106 0.16654457 -0.0060303472
-0.021960676 0.16438434 -0.0060925372
-0.033328414 0.18251951 -0.0048979856
-0.064002216 0.035563916 0.0080695599
-0.060531259 0.032123566 0.008307796
-0.061648905 0.040147036 0.0080874264
-0.057637751 0.040678948 0.0088078007
-0.047662258 0.03261441 0.007005658
-0.03999573 0.033529282 0.0053489693
-0.070503771 0.064233035 0.012927391
-0.066120505 0.061121076 0.011245321
-0.060591877 0.058318436 0.012413483
-0.051609278 0.048312128 0.007846754
-0.040327847 0.035553813 0.010549057
-0.033891141 0.034533501 0.0063185319
-0.027228296 0.034723997 0.0072966591
-0.084369242 0.082486689 0.011946775
-0.080394745 0.075620949 0.010966741
-0.073661864 0.067557305 0.010093521
-0.065602243 0.062093765 0.006180495
-0.055462956 0.057788372 0.0082024299
-0.050134242 0.054013342 0.0085230395
-0.018696785 0.040154427 0.0037814975
-0.01276356 0.040797502 0.0038766935
-0.086099625 0.095703691 0.01533033
-0.084938705 0.089887142 0.011371113
-0.0065461993 0.041560024 0.0032876208
0.0029627681 0.042027652 0.0029000677
0.010068476 0.039131433 0.0030214079
-0.089977741 0.11004002 0.016190816
-0.084656119 0.1030362 0.012688678
-0.08410275 0.097622037 0.0088791437
0.0063554645 0.042862535 -0.0011456534
0.015120685 0.039912194 -0.00039910525
0.02392292 0.0410465 -0.0018906221
-0.09025377 0.11691578 0.013046317
-0.084957063 0.10945798 0.0092315003
0.029698074 0.04166764 0.00027842447
0.036971152 0.043074518 -1.0434538e-05
-0.090424836 0.12937962 0.014741223
-0.089166224 0.12579134 0.010582708
0.044959843 0.046928078 -0.0020471178
0.049755812 0.048948377 0.00027636811
-0.087441623 0.13854328 0.013323113
-0.085600555 0.13490106 0.0083121061
0.055273354 0.054353088 -0.0025192052
-0.084568202 0.1474423 0.012679137
-0.052622199 0.13460669 0.0051384084
-0.047210276 0.13027014 0.0082611628
-0.042607129 0.12853467 0.0075910315
0.061301351 0.062556326 -0.0028640777
-0.077813745 0.15199229 0.01265046
-0.070040882 0.15249865 0.011619065
-0.064150989 0.15141079 0.0071029402
-0.051832736 0.14059199 0.0092085786
-0.049713433 0.13422829 0.011075508
-0.037273526 0.12794916 0.0083297081
-0.027826667 0.12703717 0.0069041289
0.050611615 0.081539214 -0.0017308667
0.059383392 0.077184558 -0.0036762245
0.063768864 0.070716798 -0.0017052293
-0.063169241 0.15451014 0.011645246
-0.058213949 0.15725055 0.011488244
-0.047394753 0.14973578 0.010675151
-0.042177498 0.15030833 0.0053913295
-0.020964205 0.12924738 0.0079676397
-0.014897466 0.13123158 0.005837746
0.047800362 0.094144762 -0.0011525154
0.049160302 0.087851614 0.00054413453
0.060907364 0.080592752 0.00071219355
-0.05201906 0.16302247 0.0096877888
-0.04377377 0.15844585 0.0084219836
-0.03777808 0.1558058 0.0052631423
-0.0077519417 0.13361466 0.0061687939
-0.00021874905 0.13493772 0.0040242448
0.0062320828 0.13477425 6.9200993e-05
0.038835824 0.11499712 -0.0024411939
0.043351352 0.10905436 -0.00011619553
0.046644926 0.10150638 -7.2009861e-05
-0.04566431 0.16929778 0.0066717863
-0.042798102 0.16710438 0.0059751831
-0.033951819 0.16009575 0.004606232
0.0060181618 0.13587901 0.0063438192
0.011991858 0.13457492 0.0036049373
0.021222174 0.131081 0.0027009062
0.029752672 0.1257486 0.0018788576
0.036966443 0.11873041 0.0015487447
-0.05850935 0.032786459 0.015526
-0.055011153 0.0371795 0.017761156
-0.048328519 0.03231284 0.016950008
-0.070496738 0.064403951 0.018048551
-0.064845681 0.060405791 0.018913168
-0.059596896 0.057759255 0.017167326
-0.048145056 0.045340985 0.015732478
-0.043792546 0.045627862 0.019804906
-0.028892696 0.03632915 0.012834068
-0.024722636 0.035111487 0.01468702
-0.083995938 0.082338512 0.021149132
-0.079815447 0.07491836 0.021214347
-0.073201776 0.066981852 0.020501535
-0.066428065 0.062613398 0.023339022
-0.054622412 0.057083458 0.018724784
-0.045072019 0.052959889 0.016940586
-0.042464077 0.049383163 0.018510118
-0.016651809 0.039496303 0.014570501
-0.011783898 0.040442705 0.013654988
-0.086180866 0.094974577 0.021835372
-0.085824132 0.088967204 0.021695908
-0.0056150556 0.041186571 0.013165522
0.0046328902 0.041395217 0.012462247
0.010781467 0.038909584 0.01153503
-0.09043318 0.10962878 0.023016933
-0.085551381 0.10288125 0.022009887
0.014607131 0.039113313 0.012748007
-0.093079746 0.12216312 0.024283201
-0.09268865 0.1162191 0.02246061
0.031322777 0.041898847 0.010240871
0.037880838 0.042594045 0.0096564889
-0.091487348 0.12939903 0.023111526
0.045609832 0.045898885 0.0092076175
0.050620139 0.048812211 0.0084219426
-0.092236429 0.14414704 0.024504442
-0.091289282 0.13870865 0.022314135
0.056474507 0.052954614 0.0075301342
-0.090185106 0.14700675 0.024444956
-0.084866345 0.14972839 0.022722308
-0.044590116 0.12936437 0.019014269
-0.041198671 0.12720752 0.019909866
0.063491225 0.061400354 0.0070231631
-0.077294648 0.15231347 0.022554312
-0.069128454 0.1532539 0.021699604
-0.054052174 0.14778814 0.024626844
-0.051882923 0.14158164 0.020030688
-0.048110485 0.13398226 0.018877365
-0.035945475 0.12746891 0.017638888
-0.02708447 0.12688589 0.017450627
0.052540779 0.082857937 0.0090693645
0.065137565 0.076775193 0.0082637295
0.065786242 0.071235895 0.0069992542
-0.063191593 0.1535898 0.021633863
-0.057033956 0.1525166 0.020165544
-0.052135766 0.14885835 0.017285731
-0.020176172 0.12933351 0.016400468
-0.014072895 0.13162719 0.016292531
0.048868537 0.094276994 0.0092792921
0.05177176 0.086526155 0.008013282
0.061973393 0.080809981 0.0077236034
-0.0070377588 0.13380633 0.015399776
0.00055110455 0.13532431 0.014903553
0.040980756 0.11476903 0.012334738
0.044226587 0.10891576 0.0098841973
0.047327757 0.10157672 0.0094251744
0.0066969395 0.13591458 0.01438107
0.013116002 0.13480203 0.013668135
0.02257216 0.13131991 0.012740493
0.030896068 0.12584853 0.011910934
0.037909389 0.11868942 0.010776345
-0.055421531 0.032516986 0.031565838
-0.053247035 0.036601275 0.028085563
-0.046057582 0.032603025 0.027272541
-0.038055182 0.033192068 0.028856603
-0.063187063 0.06029886 0.024086494
-0.046332121 0.045493662 0.027567532
-0.044491351 0.044546813 0.022816122
-0.03135699 0.034191191 0.028239403
-0.024584472 0.035077304 0.024782673
-0.082339823 0.082411349 0.028801713
-0.077681005 0.076341808 0.030748712
-0.070857108 0.068434954 0.030049331
-0.062476516 0.062714696 0.029130219
-0.053185463 0.0596371 0.027967822
-0.044407308 0.054457009 0.02752186
-0.016965926 0.039284885 0.024813179
-0.011062026 0.040331483 0.023150962
-0.084896266 0.09548223 0.027736027
-0.082481444 0.089076132 0.031683285
-0.078502536 0.082499355 0.034954537
-0.0047426224 0.041118532 0.023156166
0.0034077764 0.042060494 0.022413041
0.01081109 0.03970322 0.01677591
-0.089221656 0.10978475 0.029507056
-0.083193243 0.10350525 0.029988475
-0.079942226 0.098631948 0.034348637
0.009458065 0.042617232 0.021953512
0.016696453 0.040842921 0.021345623
0.025761962 0.040440172 0.020411942
-0.092478722 0.12194659 0.031616896
-0.090975195 0.11519913 0.033193424
-0.083091915 0.10758436 0.034808222
-0.077817976 0.10440531 0.03577083
0.032817483 0.042636722 0.020259943
0.038322031 0.044471204 0.017836373
-0.090207815 0.12896283 0.032806091
0.038977623 0.049237132 0.024244025
0.044909179 0.048711628 0.019570995
0.051085472 0.049952984 0.014810253
-0.091623306 0.14326158 0.031289957
-0.090532571 0.13882115 0.033954035
-0.046516597 0.11982855 0.033669539
-0.045053065 0.11882271 0.032705124
0.052529395 0.054588169 0.021607179
0.056437969 0.05489555 0.016601104
-0.08961904 0.14652631 0.030519176
-0.083606839 0.14867088 0.03336063
-0.051655531 0.13421477 0.033233818
-0.046694458 0.12809715 0.029865379
-0.039525986 0.1226024 0.02869227
-0.030804932 0.12094907 0.030469129
0.048995852 0.072616637 0.022477236
0.058024704 0.066632241 0.022278752
0.061815023 0.062590092 0.016922157
-0.076352537 0.1516296 0.031838574
-0.068125248 0.15254742 0.031932734
-0.056233168 0.14763144 0.032441489
-0.053181052 0.13981521 0.029680684
-0.048653543 0.13363086 0.026107173
-0.034033179 0.12523805 0.024519216
-0.025849164 0.12375665 0.026236694
-0.018709183 0.12481904 0.029098507
0.047941804 0.08606863 0.022324961
0.050933957 0.079999894 0.018671859
0.060275674 0.07532233 0.018425792
0.064609468 0.070159733 0.014844295
-0.062791765 0.15333757 0.027784739
-0.05768162 0.15136389 0.030004937
-0.019104838 0.12797847 0.022930045
-0.012078464 0.1296152 0.025977928
-0.004596889 0.13024916 0.029607812
0.04537648 0.10017774 0.023426734
0.048018157 0.093735337 0.019375887
0.050041735 0.087317735 0.015848044
0.061068892 0.080470264 0.013768148
-0.0059092641 0.13285054 0.02333549
0.0016133785 0.13311426 0.024902713
0.010525227 0.13193689 0.027150754
0.03929466 0.11441627 0.022429358
0.043861568 0.10693139 0.020108219
0.047206342 0.10088918 0.016860519
0.0074391961 0.13490902 0.021004487
0.013719261 0.13312 0.022725534
0.022691905 0.12956126 0.022748541
0.031184673 0.12418272 0.022038039
0.037248671 0.11862919 0.01987664
-0.05518347 0.032531083 0.036238018
-0.054074407 0.0368312 0.038045477
-0.044471443 0.032830507 0.036824364
-0.037495196 0.033637613 0.035803154
-0.04741627 0.045878887 0.037935186
-0.040651739 0.046782285 0.040759373
-0.031382859 0.034191191 0.035595231
-0.024273574 0.035010397 0.035114422
-0.074048579 0.076876819 0.037628379
-0.067646146 0.071653962 0.038417723
-0.059613705 0.066511184 0.037761346
-0.05093497 0.063051313 0.035721231
-0.041201472 0.054599315 0.035793379
-0.034548163 0.050756067 0.040097184
-0.026601672 0.04879874 0.039841447
-0.015779376 0.039889991 0.033437565
-0.01034373 0.040629953 0.032628436
-0.077287614 0.089392543 0.038020078
-0.072921515 0.083663195 0.041158363
-0.065517724 0.076234698 0.043121681
-0.056395113 0.070172042 0.042365871
-0.046650112 0.066664755 0.04007652
-0.039527893 0.062505215 0.039260022
-0.027907133 0.056597024 0.039872654
-0.021401167 0.054345727 0.03778629
-0.0041344166 0.041460693 0.033175223
0.0044746995 0.042109936 0.031645324
0.012692511 0.038748175 0.035215452
-0.087905347 0.10961306 0.043549228
-0.083859682 0.10692644 0.04285023
-0.074813604 0.097170949 0.039397381
-0.069751978 0.093597442 0.043634329
-0.022256076 0.065878868 0.039294597
-0.01857537 0.061100781 0.038332347
0.010002971 0.043154508 0.029864561
0.018788517 0.040932655 0.030840661
0.026238084 0.040359616 0.030096028
-0.089790881 0.11676632 0.042399555
-0.079296112 0.10583076 0.040772311
-0.071601272 0.10403332 0.042579703
-0.063691974 0.10266313 0.043663226
-0.021963239 0.071903437 0.040452112
0.033370554 0.045407236 0.030134574
-0.088408709 0.12877177 0.042750306
-0.088844955 0.12369511 0.045190159
-0.05667901 0.10931736 0.0422346
-0.048236787 0.10676786 0.042484067
0.03373301 0.057322234 0.035072282
0.037447214 0.053844035 0.030226219
0.045026302 0.053051293 0.02437814
-0.087005734 0.13808915 0.042921681
-0.056893885 0.12606023 0.044664916
-0.051307142 0.11800502 0.040540408
-0.043870091 0.11318454 0.037850857
-0.03449291 0.10846823 0.040213626
-0.027395129 0.10714594 0.041376643
0.042460263 0.062592536 0.029546674
0.049727142 0.058249205 0.02538142
-0.080410719 0.14567675 0.042417161
-0.073224187 0.14608201 0.045298386
-0.061638296 0.13729645 0.042953365
-0.055725574 0.13164954 0.039997049
-0.049573898 0.12576638 0.03748896
-0.037526429 0.11783263 0.034251116
-0.030065119 0.11572358 0.035403319
-0.022034824 0.11293279 0.038907431
0.042158425 0.076250941 0.033121191
0.045608878 0.071280956 0.028098203
0.054252028 0.066061884 0.02459478
-0.07501322 0.15002692 0.038228199
-0.067856491 0.14905515 0.041044127
-0.059755147 0.14566997 0.040129624
-0.056136966 0.13979875 0.036309086
-0.02372396 0.11998452 0.032844432
-0.016132832 0.11990777 0.036100812
-0.0093650818 0.11815092 0.039447885
0.040859997 0.090894997 0.034430534
0.044071078 0.084937662 0.030179705
0.046899617 0.079319626 0.025553025
-0.058591127 0.15088643 0.036201112
-0.010206103 0.12604548 0.032909043
-0.002814889 0.12439083 0.035971984
0.0071890354 0.12131365 0.037584525
0.015356839 0.11650656 0.037405279
0.025830388 0.11225566 0.036682252
0.035176694 0.10622436 0.034948938
0.04166615 0.098980546 0.0312621
0.045063436 0.092743188 0.027606349
0.0023040175 0.1290226 0.031660929
0.01112932 0.12671629 0.032909423
0.019535601 0.12274507 0.033040524
0.028526008 0.11758789 0.032310758
0.03569895 0.11146392 0.030417379
0.041371286 0.10538378 0.027655356
0.023369551 0.12646687 0.028719885
0.029238164 0.12273693 0.027641837
-0.050669014 0.036486208 0.045441147
-0.043618798 0.033874661 0.046175819
-0.036946058 0.033592105 0.043300662
-0.046734214 0.04298988 0.045199942
-0.038637817 0.040857941 0.045871485
-0.030306518 0.036507189 0.043967899
-0.022032619 0.035385579 0.044574171
-0.032804191 0.045739412 0.041873492
-0.024832129 0.043804377 0.044844694
-0.016539276 0.035788864 0.045483798
-0.0075298548 0.036470026 0.045288302
-0.066861808 0.08500284 0.045809206
-0.061902881 0.079690307 0.046299618
-0.054191589 0.074315578 0.045500711
-0.045614421 0.071596533 0.043990597
-0.03535676 0.065116853 0.042426649
-0.030381322 0.060343802 0.041840144
-0.018477142 0.050657362 0.04365344
-0.011351645 0.050898135 0.046204858
-0.00013184547 0.042707771 0.04645684
0.0055828691 0.038829446 0.043285895
0.012836337 0.038536042 0.039053604
-0.086914599 0.10939126 0.048195165
-0.083468616 0.10718912 0.048519194
-0.06509155 0.091209978 0.046418976
-0.058012486 0.086950272 0.048472628
-0.049497426 0.08203125 0.047963429
-0.041067123 0.077004313 0.045661576
-0.032379925 0.071849942 0.043670673
-0.025327563 0.067929178 0.041817233
-0.013946354 0.062020481 0.043871097
-0.0082287192 0.054891229 0.046902068
0.0018915534 0.048963904 0.04609853
0.010768354 0.04604882 0.04399607
0.019258976 0.041608661 0.040289763
0.02625984 0.040863365 0.037328303
-0.086476207 0.11556774 0.051899556
-0.078888476 0.10986151 0.053170677
-0.070021451 0.10697582 0.050716154
-0.059837461 0.098929286 0.045939486
-0.052965999 0.095720738 0.047261138
-0.044400156 0.090682924 0.047508102
-0.035778046 0.085553706 0.045500677
-0.026791871 0.080467463 0.043884452
-0.019144416 0.074991375 0.045270462
-0.013664484 0.068465531 0.047687102
0.019203424 0.052413046 0.045235086
0.024484277 0.05036664 0.040533803
0.03046006 0.046337277 0.03697858
-0.086155415 0.12988985 0.049765166
-0.084212065 0.12483393 0.053587701
-0.077867806 0.11723499 0.056450319
-0.061724365 0.11260614 0.052031875
-0.059634268 0.11185126 0.046778079
-0.048114955 0.10196838 0.044833459
-0.039599001 0.099521995 0.04484953
-0.03079313 0.094281763 0.04535782
-0.022244036 0.088919789 0.046975758
0.025118232 0.063064992 0.04543867
0.029724896 0.058852345 0.040540341
0.032746732 0.053401113 0.035644144
-0.083103478 0.13606416 0.049952809
-0.077545345 0.13421087 0.054585304
-0.066153526 0.12982997 0.053198185
-0.06002152 0.12283726 0.049676973
-0.05591464 0.11893283 0.045536246
-0.036896467 0.10448611 0.042964585
-0.025693417 0.10215506 0.044013605
-0.017252505 0.098224312 0.046401404
-0.0097859502 0.099403262 0.049074467
0.028830409 0.071326464 0.044098072
0.034543931 0.067403138 0.039208952
0.038642943 0.064626843 0.035045225
-0.078879476 0.14193247 0.048388008
-0.071776748 0.14103092 0.050303422
-0.065245569 0.13610604 0.04923249
-0.018922627 0.10885735 0.042271022
-0.011976898 0.10609746 0.043598637
-0.003090322 0.10322627 0.045793921
0.032495439 0.080758393 0.0426975
0.037573874 0.07602185 0.036980145
-0.0065774918 0.11404125 0.041804593
0.0016596317 0.10961331 0.042803377
0.0096300244 0.10524303 0.044570047
0.020177901 0.10153911 0.045679998
0.028124571 0.094970465 0.044555236
0.035643101 0.089481622 0.03999798
0.039827526 0.084288627 0.036366317
-0.0013642311 0.11841384 0.040207062
0.0058579445 0.11665425 0.040333726
0.014396966 0.11191398 0.040154479
0.023763299 0.10807705 0.04141058
0.031653702 0.10286748 0.039815813
0.037732244 0.097355217 0.037391189
-0.020156622 0.035966903 0.049668085
-0.020383596 0.042597502 0.050184265
-0.015964329 0.039276749 0.051881824
-0.0079749823 0.0376077 0.050772171
-0.017593145 0.046587467 0.049659222
-0.010677695 0.046061814 0.05128108
-0.0033910871 0.04243198 0.049487732
-0.0090987682 0.062942863 0.049823754
-0.0046051145 0.058474362 0.05014943
0.0029476881 0.053902924 0.049539272
0.0099385977 0.052270412 0.048186939
-0.073203266 0.11246319 0.057160407
-0.069817781 0.11048089 0.056855053
-0.015199542 0.077384531 0.052374247
-0.008790791 0.0704557 0.052702852
-0.00077956915 0.065096766 0.053391516
0.0082387924 0.059908479 0.052021548
0.016200662 0.055919588 0.048834763
-0.078580439 0.12396701 0.058682665
-0.072399914 0.11915937 0.058950983
-0.065327585 0.1150025 0.057854351
-0.017641962 0.088242501 0.052491758
-0.013013184 0.083833963 0.055724237
-0.0037950873 0.078904152 0.056072127
0.0048026443 0.073654711 0.055492029
0.013635337 0.068507016 0.053158995
0.020631611 0.063897908 0.048820801
-0.075380206 0.12959062 0.058130972
-0.069337249 0.12635721 0.057784215
-0.063516557 0.12106225 0.056647535
-0.014130116 0.094502866 0.052188724
-0.0076422691 0.092684329 0.055293944
0.0011176467 0.087468922 0.056209236
0.0098868012 0.082250774 0.055052284
0.01853478 0.077136993 0.052037671
0.024542928 0.073046058 0.048071586
-0.0020368099 0.099172264 0.052181248
0.0059425235 0.096362829 0.053519264
0.014886677 0.090875804 0.053032454
0.02324456 0.086185008 0.049456712
0.027887344 0.081064701 0.04731157
0.0097243786 0.10077637 0.049865846
0.018459499 0.097147793 0.049211208
0.024424493 0.091884524 0.047489293
