# .PCD v0.7 - Point Cloud Data file format
VERSION 0.7
FIELDS x y z
SIZE 4 4 4
TYPE F F F
COUNT 1 1 1
WIDTH 1336
HEIGHT 1
VIEWPOINT 0 0 0 1 0 0 0
POINTS 1336
DATA ascii
0.60248613 0.090675734 -0.023072707
0.58870721 0.068445317 -0.036988597
0.64535886 0.089361757 0.0067896778
0.57736093 0.1006096 -0.011392337
0.57934558 0.099817015 -0.013463994
0.58301258 0.10066711 -0.015938804
0.59211564 0.10319909 -0.016406801
0.57102895 0.085434474 -0.018191032
0.58542025 0.08105462 -0.023535851
0.56146741 0.06023173 -0.022339802
0.60870004 0.11020601 -0.010042702
0.59268266 0.08335416 -0.024954969
0.59357196 0.083802089 -0.024787558
0.58189577 0.088688038 -0.022223718
0.61343974 0.087377869 -0.025433224
0.59443742 0.084298171 -0.024652531
0.5945071 0.011713096 -0.027628619
0.58390874 0.097592205 -0.018695267
0.59594113 0.014230617 -0.028827256
0.59669423 0.015353636 -0.029294007
0.59750998 0.016371261 -0.029597601
0.5983178 0.017129477 -0.029750315
0.59914851 0.017884437 -0.029872142
0.5953083 0.084726259 -0.024453413
0.59207624 0.090517871 -0.021442419
0.59148282 0.020265037 -0.013447531
0.59084255 0.019450281 -0.013346704
0.58999461 0.018637987 -0.013163272
0.58917701 0.01763704 -0.012783177
0.58839762 0.016526286 -0.012373412
0.5539887 0.072468348 -0.017606843
0.55850685 0.077193804 -0.016856261
0.55763769 0.076585308 -0.016879899
0.58827156 0.10020929 -0.01822673
0.59274709 0.10210681 -0.017060224
0.56589758 0.081574492 -0.018054524
0.58164936 0.097070225 -0.017654715
0.56500071 0.075008646 -0.020999877
0.61165726 0.10550349 -0.014147039
0.65558636 0.087833978 0.0002099319
0.57383919 0.088827819 -0.017371854
0.58102429 0.088212654 -0.022344843
0.6190185 0.09809792 -0.01710413
0.59617192 0.085272171 -0.024377778
0.55473375 0.080339447 -0.011822879
0.53312784 0.062987983 -0.012228713
0.6099087 0.1083321 -0.011648483
0.56568879 0.079827972 -0.018686507
0.59304738 0.099916175 -0.018925803
0.57694542 0.090210453 -0.018633131
0.59704733 0.085744403 -0.024227658
0.59791631 0.086293377 -0.024159327
0.59095192 0.10135926 -0.017534224
0.60518712 0.10150959 -0.016704587
0.53437334 0.067280956 -0.011128973
0.57298571 0.088194788 -0.017354602
0.59881878 0.086720914 -0.023978423
0.51005006 0.087919466 -0.0025113584
0.51099664 0.087840855 -0.0018411507
0.5119198 0.08796791 -0.00137003
0.51282287 0.08827702 -0.0010646582
0.51368719 0.088893153 -0.0010672188
0.51453596 0.089684717 -0.0012373817
0.5154894 0.090651445 -0.0015883774
0.60392976 0.10366845 -0.015384142
0.62435126 0.094379783 -0.018647736
0.58473516 0.069353163 -0.036092352
0.59481615 0.11478458 -0.0028542005
0.58207983 0.081175216 -0.023679899
0.58384186 0.082106419 -0.023397867
0.58721954 0.084374458 -0.023082785
0.65014172 0.083222695 -0.0013542857
0.59348041 0.087530717 -0.022005422
0.59695077 0.089581579 -0.021356508
0.60547984 0.096055761 -0.021809807
0.60727084 0.096791595 -0.021311808
0.60907203 0.097428441 -0.020718724
0.61279386 0.098249368 -0.019134361
0.61937189 0.099097244 -0.015750196
0.62408215 0.099635504 -0.013253549
0.62882113 0.099958181 -0.010575439
0.57075292 0.084042273 -0.019171046
0.64479721 0.089867674 0.008042126
0.60163951 0.090033673 -0.023041459
0.58956182 0.069046073 -0.036927652
0.59744155 0.022335911 -0.026214037
0.62228173 0.092308134 -0.020186741
0.5784983 0.099108189 -0.013372553
0.56104797 0.018276783 0.030444289
0.56009251 0.021263096 0.035081673
0.56495827 0.094622545 -0.0058000158
0.59968644 0.087268107 -0.023903592
0.5658173 0.075742215 -0.0211221
0.57469946 0.089455813 -0.01737541
0.60585272 0.087168455 -0.025956027
0.58021998 0.097047947 -0.016525615
0.600555 0.087746561 -0.023765767
0.60329807 0.10476918 -0.014739417
0.6042071 0.10503933 -0.014387934
0.60511273 0.10535277 -0.014093345
0.60599583 0.1057846 -0.013905132
0.56966686 0.081687547 -0.01984296
0.56882119 0.081045412 -0.019798115
0.60755408 0.10149872 -0.017208848
0.6057933 0.1005709 -0.017511284
0.60076642 0.10912775 -0.012124215
0.60167223 0.10939183 -0.011777533
0.55021286 0.072440818 -0.015885796
0.61149085 0.11064347 -0.0086532747
0.61243975 0.11068527 -0.0080837347
0.55104953 0.073158048 -0.01599233
0.58128405 0.07024768 -0.032902364
0.65836841 0.088264622 0.0015774623
0.60343957 0.087402038 -0.025664518
0.59037036 0.082846195 -0.02393969
0.5983603 0.10939338 -0.011878609
0.59745258 0.10908957 -0.012189794
0.60975635 0.11294174 -0.0057302206
0.60882294 0.11283328 -0.0062305643
0.57999963 0.095312774 -0.017151991
0.57917494 0.094434783 -0.016900377
0.60189593 0.084872074 -0.028471028
0.56794959 0.074375413 -0.022613591
0.58495289 0.00054108538 -0.011757109
0.59237409 0.018460285 -0.02197456
0.60142517 0.088290252 -0.023684235
0.58277786 0.089134023 -0.022040104
0.58613789 0.088921309 -0.021769775
0.6174885 0.098961189 -0.016821187
0.63540554 0.069903769 -0.021698138
0.6023035 0.088763788 -0.023546319
0.61942226 0.025348315 -0.025813896
0.604303 0.10104235 -0.016850803
0.60810506 0.10429716 -0.015286024
0.60477358 0.10773025 -0.012368528
0.58070707 0.10349555 -0.011817774
0.59185916 0.10167882 -0.017247034
0.60164326 0.099756442 -0.017414935
0.55646408 0.078195252 -0.014957954
0.58525789 0.075426444 -0.030796466
0.60317165 0.089307651 -0.023467587
0.51060361 0.087476842 -0.0038132265
0.51159006 0.08708217 -0.0028083019
0.5124926 0.087191708 -0.0023401228
0.51341444 0.087411806 -0.0019267814
0.51432121 0.087724783 -0.001626733
0.51518601 0.08834248 -0.0016286219
0.51603454 0.08912649 -0.0017354954
0.60302043 0.10336348 -0.015689729
0.59268737 0.079569578 -0.031680971
0.59737295 0.086872913 -0.0230061
0.57863849 0.078884318 -0.023841955
0.58295846 0.081644662 -0.023551883
0.58468419 0.082811683 -0.023435706
0.58904994 0.085369036 -0.022876179
0.59258407 0.087160937 -0.022263922
0.59526861 0.088458665 -0.021635901
0.57555377 0.090084448 -0.017384861
0.60636711 0.096479498 -0.021605097
0.60817742 0.09708219 -0.020993421
0.57987428 0.1062875 -0.0088133207
0.58159685 0.10740527 -0.0087051671
0.60279173 0.085214868 -0.028192732
0.53064418 0.060062431 -0.011013404
0.57122976 0.10036021 -0.0090113375
0.57297498 0.10146108 -0.0088831866
0.5596835 0.089119315 -0.0063322689
0.54029942 0.062166393 -0.017090518
0.6040442 0.089793473 -0.023356564
0.5946337 0.016502639 -0.027291276
0.5420534 0.063523524 -0.017310435
0.54957587 0.067130424 -0.017761445
0.57620806 0.098620676 -0.012373981
0.59600002 0.016638612 -0.028644931
0.60490394 0.090411335 -0.02333492
0.60579866 0.0910201 -0.023256395
0.56414795 0.093815617 -0.0056007137
0.54655313 0.081227601 -0.0076216632
0.53726387 0.060872249 -0.015953766
0.53807634 0.061680764 -0.01615688
0.60165179 0.086629607 -0.026128622
0.58210498 0.07105501 -0.033076879
0.59280831 0.08213003 -0.027778761
0.61196959 0.084403627 -0.027851418
0.5592851 0.08150728 -0.014046487
0.56100833 0.08275044 -0.014056502
0.59895051 0.10854827 -0.012767587
0.59985781 0.10884555 -0.0124517
0.60111123 0.021149797 -0.02917926
0.58531541 0.10114032 -0.016908782
0.59590119 0.087244816 -0.02223794
0.58976716 0.083771445 -0.023115598
0.5845204 0.08074294 -0.023804542
0.57934701 0.077425048 -0.024121955
0.58330512 0.10197728 -0.014887508
0.60086852 0.11191797 -0.0084847715
0.58390552 0.10781342 -0.009610517
0.59617478 0.018474262 -0.027965622
0.6077894 0.10993345 -0.010379075
0.5664506 0.074786149 -0.021912811
0.56066203 0.075441696 -0.018029304
0.57723975 0.091586269 -0.01764093
0.60788536 0.11268711 -0.0067060799
0.60696399 0.11247102 -0.007105161
0.5914644 0.10441422 -0.015888451
0.57976639 0.0051863045 -0.0082434956
0.56339663 0.073375866 -0.020621963
0.60518098 0.09815333 -0.019803138
0.60252762 0.096829996 -0.020327479
0.58102334 -0.0044912524 -0.010061442
0.61571276 0.021797661 -0.026892353
0.57665116 0.092427626 -0.016729452
0.57260239 0.090863027 -0.015901132
0.58026069 -0.00059240032 -0.0095834667
0.57711321 -0.0046746838 -0.0082130143
0.55130082 0.081157781 -0.0085828686
0.63251954 0.069814503 -0.023229031
0.59235632 0.10822901 -0.012660387
0.59564412 0.10844743 -0.012770575
0.59084839 0.10542368 -0.015159743
0.60962111 0.11040325 -0.0096307537
0.57610577 0.063959479 -0.032863591
0.62024766 0.023766784 -0.026019268
0.54418337 0.06807372 -0.015924901
0.62118578 0.10986092 -0.0017823193
0.61090291 0.11151256 -0.007774604
0.58835852 0.076819099 -0.032043841
0.59531927 0.081036985 -0.031287409
0.5624783 0.092445664 -0.0054563293
0.51214921 0.086568139 -0.00403602
0.51308131 0.086364016 -0.0032421187
0.51398236 0.086510822 -0.0027783352
0.51490349 0.086722948 -0.0023424444
0.51581949 0.08714658 -0.0021323489
0.51664013 0.087660424 -0.001989027
0.60211337 0.10307741 -0.016021613
0.62524754 0.094526112 -0.01815976
0.65572739 0.084051147 -0.0027079077
0.57948959 0.079518065 -0.023855805
0.56474036 0.083181493 -0.016143186
0.49844167 0.10719794 -0.061620954
0.58819562 0.08475899 -0.022948623
0.53597587 0.062872738 -0.014438023
0.59442735 0.087901369 -0.021752447
0.59776253 0.090286911 -0.021575831
0.60640842 0.086509638 -0.027052667
0.62089473 0.098338395 -0.016132524
0.56856477 0.092518441 -0.011793777
0.64435279 0.089714155 0.0058802781
0.56095296 0.086336546 -0.011144497
0.56166148 0.091704547 -0.0053385668
0.57833421 0.093651488 -0.016742248
0.56389266 0.082321472 -0.015912762
0.59124774 0.10266321 -0.016488831
0.57720309 0.00041694357 -0.0080153216
0.5769887 0.077273972 -0.023490518
0.59120154 0.090037696 -0.02155254
0.56082022 0.090918392 -0.0051562269
0.55786377 0.081556335 -0.012951585
0.59535456 0.11425794 -0.0040184599
0.59988087 0.085782491 -0.026515843
0.58728021 0.090866692 -0.020725328
0.57764953 0.069867395 -0.02685372
0.64975542 0.085686356 0.00042170472
0.57686782 0.093960963 -0.015924199
0.53331769 0.064668775 -0.011532531
0.53742135 0.068920642 -0.012703894
0.61699212 0.10550221 -0.012747753
0.61603987 0.10534782 -0.013199002
0.54419965 0.074473001 -0.013327332
0.62158483 0.093666069 -0.019746654
0.61795115 0.10555392 -0.012193918
0.53175199 0.06890586 -0.0080759553
0.565516 0.087411471 -0.01326642
0.58972245 0.10337147 -0.016064707
0.54999226 0.070701748 -0.016545571
0.54226327 0.065268308 -0.016659053
0.5414201 0.064627998 -0.016628008
0.53973871 0.063201278 -0.016439334
0.54057455 0.063919134 -0.016540768
0.55163407 0.08219824 -0.0072660823
0.58566165 0.10880836 -0.0093813837
0.53449667 0.072778404 -0.0077334321
0.58755392 0.06661249 -0.038141023
0.57675642 0.10133927 -0.010388664
0.58762443 0.078805655 -0.028203171
0.62006843 0.11115923 0.00042854372
0.58675808 0.078253664 -0.028271804
0.60108221 0.11025323 -0.010905552
0.6101777 0.093264982 -0.022475306
0.6110909 0.093569621 -0.022185821
0.59477735 0.081552833 -0.030068487
0.65431935 0.089955077 0.0016792559
0.59738868 0.093140297 -0.020416247
0.6210357 0.090838812 -0.021658285
0.61201853 0.093779221 -0.021795454
0.61292857 0.094083242 -0.021499466
0.59444702 0.11398518 -0.0043948237
0.57340664 0.0030807422 -0.0018872081
0.61384338 0.094396293 -0.021218082
0.60286576 0.11473185 -0.003673723
0.5894503 0.10192514 -0.016979927
0.61471796 0.094817378 -0.020985467
0.55332798 0.080298401 -0.010638693
0.56498623 0.091230541 -0.008848248
0.62855029 0.10187172 -0.0083562536
0.58501816 0.099778384 -0.017905081
0.60514766 0.11190229 -0.0077566705
0.60423851 0.11161352 -0.0080778254
0.57896441 0.0042293621 -0.007940473
0.57813203 0.0032859566 -0.0076785837
0.57733035 0.0024153849 -0.0074430625
0.60166401 0.096278749 -0.020397414
0.59995544 0.095012821 -0.020372607
0.58037686 0.092651218 -0.018604856
0.60676754 0.087412648 -0.025603749
0.59219712 0.019461593 -0.018724268
0.61565012 0.095053747 -0.020631799
0.60332036 0.016161818 -0.030160571
0.5779689 -0.0060345018 -0.0084123164
0.54223889 0.071712248 -0.014177062
0.54137689 0.071013704 -0.014110213
0.61655277 0.095313326 -0.020261915
0.58877081 0.10673873 -0.013620785
0.59416431 0.10888571 -0.012093103
0.61748427 0.095542066 -0.019888148
0.60342473 0.114099 -0.0047438843
0.59603924 0.0089638885 -0.02858826
0.60717332 0.10753916 -0.012684025
0.57977605 0.093509726 -0.017722972
0.6202572 0.10976087 -0.0022779447
0.57748312 0.093014032 -0.016718399
0.57792377 -0.00091251638 -0.0086154453
0.5919342 0.081712626 -0.027997777
0.57907164 0.098417707 -0.014422407
0.60260975 0.10953179 -0.011308177
0.61838579 0.095805258 -0.019534461
0.51366204 0.085500829 -0.0041222144
0.51456809 0.085565917 -0.003567192
0.51555085 0.085581675 -0.0029299424
0.51648569 0.085722111 -0.0024391157
0.51737767 0.086083747 -0.002162325
0.60120022 0.10275732 -0.0162936
0.62626135 0.094547994 -0.017620854
0.59649938 0.086392581 -0.023139924
0.62019801 0.1031801 -0.01273597
0.57219434 0.077557266 -0.022710036
0.61931109 0.096013643 -0.019139092
0.62023884 0.096226744 -0.018746125
0.59638393 0.020116929 -0.027109252
0.57399917 0.084570646 -0.019602481
0.60934144 0.1023024 -0.016794341
0.58104062 0.10813047 -0.0077145169
0.57138991 0.082933068 -0.019819874
0.61670446 0.10419188 -0.013804151
0.59125167 0.019428862 -0.015104607
0.59048295 0.018476631 -0.01481473
0.62115896 0.096414261 -0.018323958
0.53520387 0.068155833 -0.011382888
0.58041501 0.004082636 -0.0090594897
0.57963383 0.0031116027 -0.0087348195
0.57641858 -0.00054933783 -0.007687598
0.62210214 0.09655153 -0.017860705
0.53394365 0.063871928 -0.012492821
0.58630621 0.081508376 -0.023367539
0.5953657 0.017544158 -0.027697925
0.59698683 0.019317294 -0.028158532
0.6003418 0.022055566 -0.028367087
0.57562715 0.086270258 -0.020059301
0.62303704 0.096657671 -0.017364051
0.6336776 0.06566669 -0.025328735
0.63277036 0.065486439 -0.025763512
0.59412533 0.086396292 -0.022610359
0.58893949 0.016514244 -0.01414908
0.58819288 0.10754338 -0.012698917
0.59457034 0.014299521 -0.027587077
0.55786169 0.071975246 -0.018811096
0.53462583 0.068847805 -0.010305331
0.59847379 0.089065969 -0.022193208
0.57192791 0.061594397 -0.025379688
0.5726772 0.062666908 -0.025886143
0.57338166 0.063815929 -0.026392665
0.57412851 0.064981833 -0.02690641
0.58812392 0.11166693 -0.0063358177
0.62149167 0.10428973 -0.010882889
0.5749076 0.066048466 -0.027322879
0.56089461 0.070754953 -0.019899514
0.5741514 0.099837087 -0.010718645
0.55166596 0.07214766 -0.016757239
0.55082577 0.071426623 -0.016653502
0.53663206 0.061907329 -0.015212947
0.53580076 0.061029471 -0.014972432
0.53418148 0.059175365 -0.014367633
0.54621023 0.080269203 -0.0090162568
0.54712188 0.080553621 -0.0086913044
0.58847255 0.10551836 -0.014740068
0.58759987 0.10501867 -0.014854394
0.59699214 0.07634367 -0.034372922
0.65062982 0.092673659 0.0071754027
0.5744465 0.10113925 -0.0096791321
0.59340984 0.074827552 -0.035299327
0.62397343 0.09676896 -0.016874198
0.62490177 0.096979164 -0.016477032
0.59651935 0.082580321 -0.029849535
0.58438295 0.071716666 -0.03424523
0.5852322 0.072353862 -0.034255277
0.49907354 0.10593396 -0.061956495
0.59498477 0.1134408 -0.0055488851
0.59314966 0.1129586 -0.0062878761
0.59407049 0.11318537 -0.005931234
0.59589642 0.1137079 -0.0052167238
0.59224516 0.11264725 -0.0065964251
0.59134841 0.11227348 -0.0068366453
0.55935067 0.087850288 -0.0074073202
0.56102735 0.089430735 -0.0077651353
0.56186676 0.090146229 -0.0078685619
0.56270802 0.090722054 -0.0078285141
0.57266831 0.10022844 -0.010000676
0.57174724 0.099611819 -0.01001063
0.57012761 0.098008648 -0.0096213548
0.56584322 0.091786906 -0.0087908693
0.58992726 0.072729573 -0.035712242
0.62584615 0.097110651 -0.016005181
0.62681538 0.097058818 -0.015358062
0.60605359 0.11219742 -0.0074359337
0.61070395 0.11297274 -0.005155412
0.61167032 0.11294318 -0.0045054592
0.5765177 0.0015498995 -0.0072262152
0.5757252 0.00058187684 -0.0069113788
0.56576455 0.095574953 -0.0061573004
0.62464362 0.098798387 -0.014186013
0.5903303 0.089495681 -0.02164007
0.57568425 0.06711679 -0.027740048
0.60264957 0.10592944 -0.014144276
0.60699701 0.095408417 -0.022295119
0.627783 0.097002655 -0.014708942
0.57843107 0.070781805 -0.027120708
0.62785989 0.093351513 -0.017596366
0.6259712 0.093106203 -0.018553365
0.60246873 0.084137574 -0.029467888
0.65059131 0.086410508 0.00032776015
0.58604711 0.096092574 -0.020153373
0.53932583 0.072236717 -0.012393177
0.58788729 0.10633626 -0.013833595
0.54413134 0.078205541 -0.010542205
0.55233711 0.084100425 -0.0044626864
0.6019451 0.11453116 -0.0040829326
0.58663344 0.0042777816 -0.01181314
0.60616422 0.10707753 -0.012910078
0.59526283 0.015511797 -0.028167488
0.60996747 0.11139389 -0.0082672285
0.57649338 0.067935511 -0.027916858
0.54131138 0.017654294 0.027983099
0.56151962 0.0760727 -0.018038157
0.53355932 0.060205109 -0.013610019
0.65082508 0.075953588 -0.0050740778
0.62875563 0.096955433 -0.014064923
0.57069743 0.10093455 -0.0078490349
0.58415329 0.099161886 -0.01790932
0.51625729 0.084337361 -0.0034216496
0.51721579 0.084330544 -0.0028073404
0.5180878 0.084644213 -0.0024940048
0.5189665 0.085079096 -0.0023072599
0.61707389 0.088513836 -0.024117386
0.57441372 0.081729732 -0.020913484
0.6006282 0.012329103 -0.030707953
0.57355934 0.081098519 -0.02090303
0.58506447 0.076975174 -0.028250907
0.54767233 0.064100891 -0.018344229
0.54925996 0.065334521 -0.018489778
0.55961812 0.072962955 -0.018531153
0.59066492 0.10004695 -0.018577622
0.57725924 0.08811757 -0.020641206
0.64466774 0.084795177 4.0785395e-05
0.62851804 0.092043951 -0.018063825
0.61861539 0.10756268 -0.0094865328
0.6348536 0.067196384 -0.023831651
0.5504449 0.074018732 -0.015094843
0.60195172 0.097579263 -0.019335117
0.58273751 0.099341139 -0.016957307
0.59780389 0.020078629 -0.028285753
0.56346381 0.078985915 -0.017324904
0.58120793 0.080632724 -0.023772329
0.60286456 0.094610438 -0.022167277
0.53600812 0.068969391 -0.011590295
0.59551829 0.099249929 -0.018788885
0.58238894 0.072376646 -0.03199188
0.57861298 0.069461852 -0.029902637
0.60566759 0.11511423 -0.0022109065
0.57905316 0.0061298646 -0.0073635257
0.61569661 0.085162885 -0.026215864
0.55893731 0.074207373 -0.018076988
0.61115819 0.10957249 -0.0099333543
0.6093052 0.10929504 -0.010869285
0.58883601 0.10296809 -0.016272215
0.5870645 0.10202501 -0.016573448
0.53864628 0.067113079 -0.014438385
0.57767737 0.085197553 -0.021864118
0.64892668 0.091445014 0.0071823979
0.64804113 0.084346808 0.00047008009
0.60390216 0.012638101 -0.030835528
0.62318718 0.092672005 -0.019777847
0.55216551 0.078453362 -0.01178092
0.60357326 0.10612986 -0.013732308
0.57505357 0.080689378 -0.021616308
0.56172603 0.071698502 -0.02018192
0.60371238 0.095136687 -0.022125637
0.55250764 0.072862364 -0.016848776
0.54588711 0.069548823 -0.016085081
0.53499407 0.060141072 -0.01469733
0.59150428 0.065360636 -0.038611092
0.60097623 0.081368245 -0.032094248
0.59707159 0.081987105 -0.030998169
0.60157233 0.083761796 -0.029710287
0.56775558 0.091701232 -0.011593467
0.57027805 0.03257617 0.040838271
0.59166628 0.0041482002 -0.018896623
0.59763938 0.088279672 -0.022046082
0.54009545 0.07655628 -0.0095937401
0.54094887 0.077258475 -0.0096841548
0.54181188 0.077813037 -0.0096252291
0.57504582 0.10027722 -0.010543937
0.58952373 0.075289443 -0.034068972
0.58689296 0.11028294 -0.0079207812
0.49073115 0.11016465 -0.059141759
0.49996874 0.10570799 -0.06120576
0.57250994 0.084914252 -0.018832615
0.60844868 0.016739119 -0.029262723
0.57729858 0.068826295 -0.028171659
0.57811445 0.069709659 -0.028422166
0.57893008 0.070530713 -0.02859778
0.57973641 0.07142368 -0.028850881
0.58055967 0.072230436 -0.029027399
0.58138394 0.073040381 -0.029194817
0.57091552 0.07977467 -0.021405874
0.59421891 0.1017023 -0.017763289
0.60138124 0.094960853 -0.021431513
0.60223204 0.095532507 -0.021396669
0.60264343 0.092762202 -0.022760564
0.57602578 0.093382031 -0.015948845
0.57096344 0.098882318 -0.0098757222
0.56931597 0.097116649 -0.0093393
0.57617086 0.066870019 -0.029225413
0.57538289 0.065966055 -0.028966622
0.56940085 0.093383722 -0.012049995
0.55851322 0.087060735 -0.0072259726
0.57805884 0.063550659 -0.035368089
0.58700192 0.10588049 -0.013988909
0.58613074 0.10534096 -0.014064739
0.57494432 -0.0002978642 -0.0066545084
0.57409537 -0.0013369452 -0.0063213413
0.54834449 0.081978537 -0.0071460721
0.59904265 0.012965912 -0.030151511
0.57418633 0.080137864 -0.021679942
0.59237093 0.085407488 -0.022871003
0.63851196 0.038370691 -0.021771684
0.58220249 0.073847666 -0.029369634
0.56794417 0.096907325 -0.0080016395
0.6106562 0.096520953 -0.020994496
0.55069101 0.078829877 -0.011009456
0.55157745 0.079233319 -0.010798149
0.57925552 0.071590953 -0.027294928
0.55447435 0.082035251 -0.0093770232
0.55531919 0.082744814 -0.0094746631
0.60067523 0.083398186 -0.029957587
0.61306298 0.089872912 -0.023773575
0.56419659 0.07419508 -0.020802569
0.57333076 0.095642492 -0.013593284
0.54677796 0.079590738 -0.010086867
0.54588306 0.079217114 -0.010328658
0.54500026 0.078749567 -0.010473774
0.4887273 0.10807306 -0.058757897
0.57682371 0.075191945 -0.023842154
0.65483069 0.083681032 -0.002952477
0.60281175 0.081854165 -0.031367596
0.57951343 0.092098832 -0.018669391
0.61733824 0.09004017 -0.023295855
0.58966851 0.00099565031 -0.013477174
0.5941844 0.018972667 -0.025439493
0.59731984 0.099911779 -0.018222699
0.58242333 0.091581993 -0.020402972
0.57179278 0.080243208 -0.021260357
0.60179961 0.11203346 -0.0079900362
0.56427306 0.079876199 -0.017596105
0.51687753 0.08311075 -0.003918373
0.51778704 0.083288491 -0.0034706404
0.51868021 0.083636165 -0.0031999117
0.51959169 0.083964951 -0.002917194
0.52048957 0.08435192 -0.0026915534
0.52137733 0.084705554 -0.0024248315
0.60030413 0.10236787 -0.016503202
0.53276199 0.059233256 -0.01325733
0.59356439 0.080049612 -0.031532653
0.62092513 0.10805384 -0.0064410125
0.58781636 0.077333473 -0.030818721
0.60754448 0.11526313 -0.0011438599
0.61611205 0.10845897 -0.0098381806
0.63327622 0.068350434 -0.023769155
0.5841276 0.10615725 -0.01202897
0.58242899 0.10495175 -0.012051264
0.59064668 0.077262208 -0.033010315
0.61516857 0.10832083 -0.010317663
0.58328778 0.10557377 -0.01206272
0.58500236 0.10675871 -0.012021936
0.58586907 0.10730481 -0.011954403
0.58674622 0.10777318 -0.011808485
0.58762556 0.1082333 -0.011656467
0.55461907 0.071438365 -0.018341463
0.53542989 0.069739208 -0.010586631
0.60352063 0.093236774 -0.022635045
0.57348669 -0.00050446461 -0.0052313651
0.57431871 0.0005289088 -0.0055879145
0.57670468 0.0034179927 -0.0065285699
0.57827961 0.0052541899 -0.0070992187
0.59517169 0.11196685 -0.0081346827
0.59607828 0.11225995 -0.0078148963
0.58082736 0.096192941 -0.017401803
0.58246696 0.09780328 -0.017780136
0.59006882 0.10092737 -0.017723536
0.58916414 0.10059859 -0.018002927
0.56026709 0.078124985 -0.016561126
0.64456367 0.088290393 0.0031457942
0.53949803 0.067896932 -0.01458362
0.58044946 0.069520734 -0.032810133
0.59355098 0.10643649 -0.014330861
0.58845669 0.067071639 -0.037944321
0.59080201 0.11286481 -0.0057025552
0.5775007 0.0042912411 -0.0067657279
0.56998879 0.089021899 -0.015937945
0.57086164 0.0896331 -0.015920807
0.57131529 0.0012064315 0.00052418531
0.58624649 0.097879253 -0.019454183
0.53888369 0.062416233 -0.016301299
0.61111349 0.11351948 -0.003355925
0.592444 0.065804482 -0.038386706
0.54359037 0.075403288 -0.012492435
0.60153514 0.01531077 -0.030536385
0.5794968 -0.0041559157 -0.0092099281
0.61940914 0.092091285 -0.021726655
0.57118922 0.062731706 -0.024784405
0.53756803 0.074480899 -0.009355369
0.5384081 0.075272337 -0.0095334882
0.53924555 0.075987697 -0.0096408231
0.6563912 0.082915246 -0.0034033025
0.65726459 0.083227895 -0.0030756381
0.65818954 0.083333328 -0.0025896106
0.6591444 0.083266594 -0.0019349256
0.64570165 0.087982029 0.0040863939
0.64645505 0.08815071 0.0044440725
0.56010878 0.085622504 -0.011045058
0.61124611 0.11233382 -0.006278995
0.59364688 0.076361582 -0.034449484
0.59276545 0.075897641 -0.034600999
0.59188783 0.075416438 -0.034730021
0.59100974 0.074888967 -0.034844145
0.59014767 0.074331805 -0.034900777
0.58927953 0.073786102 -0.034980714
0.58842307 0.07322035 -0.035033252
0.58755684 0.072606303 -0.035055593
0.58668959 0.072056733 -0.035129625
0.58583415 0.071558528 -0.035239957
0.58495444 0.07088735 -0.035222296
0.584122 0.070296302 -0.035236653
0.58327776 0.069584019 -0.035159215
0.58245975 0.068842158 -0.035048489
0.5672394 0.085493453 -0.016594468
0.53064108 0.06672357 -0.0089013707
0.56691962 0.094062924 -0.008112927
0.58865899 0.11115523 -0.0075513641
0.58187664 0.07278578 -0.030673588
0.58105248 0.071985029 -0.030505268
0.58220869 0.067341633 -0.035968222
0.59823531 0.0095268842 -0.029911976
0.59669286 0.007381368 -0.029112047
0.58527458 0.10477406 -0.014109379
0.54100746 0.073528752 -0.012464967
0.54188216 0.074205667 -0.012515523
0.64739174 0.088667214 0.0045833578
0.5830307 0.074649476 -0.029538257
0.58388418 0.075282209 -0.029545108
0.56507879 0.080766395 -0.017861808
0.59522897 0.010429126 -0.028232006
0.59746236 0.013783168 -0.029650049
0.61083335 0.10520992 -0.014367865
0.5838809 0.068721622 -0.036091398
0.5619874 0.079164423 -0.016385362
0.58901227 0.11206795 -0.0061138109
0.5715487 0.10158204 -0.0078801541
0.5801726 0.10054211 -0.013574623
0.54647619 0.07837528 -0.011244237
0.55361617 0.081393883 -0.0093577299
0.577887 0.10342827 -0.0095169572
0.57958901 0.10490469 -0.0097688166
0.60067618 0.01465907 -0.030567432
0.58348566 0.065257207 -0.037482671
0.58262503 0.064545341 -0.037440322
0.64826894 0.089325987 0.0045358273
0.64911449 0.090043023 0.0044493377
0.54325253 0.077607304 -0.010560237
0.6499778 0.090655804 0.0044502495
0.65082979 0.091218628 0.0045119612
0.57209873 0.0022634452 0.00012763249
0.57760912 0.10203974 -0.010469309
0.60960603 0.10712343 -0.012794262
0.65168834 0.091762356 0.0045855776
0.58473915 0.075848587 -0.029482769
0.56744564 0.090335086 -0.012585359
0.61151832 0.10047082 -0.017853901
0.58556706 0.076577172 -0.029574595
0.55827326 0.069331199 -0.020258676
0.59450811 0.10983364 -0.010705274
0.65255737 0.092236064 0.004730341
0.51750708 0.082134582 -0.0046827649
0.51838666 0.08242666 -0.0043559554
0.51928556 0.08280202 -0.0041224961
0.52018559 0.0831744 -0.0038704586
0.5211004 0.083417878 -0.0034979614
0.52198464 0.083674915 -0.0031285079
0.52294344 0.083751097 -0.00258962
0.51389635 0.042238913 0.023117134
0.50944906 0.041441984 0.02058503
0.61707014 0.10848895 -0.009263807
0.57361114 0.087172337 -0.018083317
0.65344316 0.092614137 0.0049628969
0.54123801 0.078501843 -0.0085614547
0.65435666 0.092871062 0.0053331959
0.65525669 0.093105294 0.005678629
0.65619946 0.093135387 0.0062422799
0.53259808 0.082663417 0.0047679124
0.55966389 0.079051025 -0.015719233
0.54827321 0.079124115 -0.010768839
0.54872775 0.072772548 -0.015084532
0.57961494 0.068801187 -0.032722697
0.60366017 0.11235479 -0.0070898137
0.5899756 0.066391222 -0.038463335
0.59090602 0.066629805 -0.038148165
0.60226852 0.098719038 -0.018114951
0.53129584 0.06565816 -0.0095699746
0.53045058 0.064875305 -0.0094215916
0.55244851 0.079714574 -0.010661925
0.59338129 0.11120546 -0.008602526
0.59155393 0.11068687 -0.0093198335
0.62065756 0.087644167 -0.023195937
0.59444427 0.080505617 -0.031379536
0.59427387 0.11160465 -0.0083768107
0.59247279 0.11090234 -0.0089173624
0.58974618 0.11004031 -0.0098897563
0.6071977 0.11074907 -0.0094637582
0.59064424 0.11041008 -0.0096482672
0.58061105 0.094301157 -0.017888498
0.60548216 0.086320579 -0.027464934
0.54736453 0.078812219 -0.011073426
0.57052606 0.08238402 -0.01988511
0.56797099 0.080408581 -0.019774564
0.56714129 0.079753324 -0.019727027
0.60868257 0.10689965 -0.013178332
0.60687625 0.10625909 -0.013763914
0.58284831 0.095243663 -0.019185396
0.58366197 0.095949188 -0.019426119
0.59445351 0.020330306 -0.024332082
0.62752223 0.098945439 -0.012523908
0.61755872 0.091679893 -0.02252599
0.59039903 0.098573059 -0.019459447
0.54594302 0.07549955 -0.013134179
0.62729168 0.082080685 -0.022732476
0.6262514 0.082136944 -0.02327086
0.53674501 0.073753804 -0.0092392322
0.62428027 0.082219698 -0.024497882
0.65373713 0.081588358 -0.0039120312
0.65460235 0.082130529 -0.0038272182
0.65547907 0.082601093 -0.0036817186
0.60074419 0.079788506 -0.032929704
0.5877775 0.11069852 -0.0077077602
0.59901267 0.078684926 -0.033073466
0.59811604 0.07831654 -0.033325665
0.59720755 0.077989899 -0.033576954
0.59631032 0.077635325 -0.033851255
0.59542841 0.077206798 -0.034064267
0.59453237 0.076816961 -0.034281969
0.64908767 0.080807775 -0.0020267034
0.64993751 0.08151976 -0.0021021352
0.6507656 0.082259603 -0.0022148134
0.65160036 0.082982711 -0.0023054364
0.65244049 0.083640523 -0.0023419692
0.65330064 0.084258318 -0.0023252855
0.65418243 0.08473625 -0.0021831975
0.65508068 0.085101187 -0.0019307395
0.6559906 0.085383378 -0.0016015458
0.65692401 0.08548025 -0.0011040133
0.65790993 0.085460491 -0.00049749273
0.65886939 0.085381493 0.00017042659
0.58355433 0.10346375 -0.014032673
0.60003811 0.10087286 -0.01735143
0.58160239 0.068139806 -0.034982942
0.58075875 0.067567796 -0.035035588
0.54152715 0.076428153 -0.010608416
0.58919859 0.11062954 -0.0087610157
0.59677887 0.07467737 -0.035141196
0.59586698 0.074302733 -0.035534687
0.59497201 0.073991291 -0.035656083
0.57590914 0.10077512 -0.010431408
0.62026906 0.025875308 -0.025679156
0.62207085 0.024336375 -0.025376502
0.58940113 0.016357973 -0.015811123
0.60566014 0.013391167 -0.03029941
0.54888046 0.078198582 -0.011606535
0.54977995 0.078559533 -0.011350637
0.53189969 0.06464605 -0.010355737
0.53105807 0.063774273 -0.010127056
0.53683645 0.069846362 -0.01184811
0.54960215 0.073371269 -0.015050998
0.59713256 0.10794993 -0.013394157
0.6152693 0.087848447 -0.024680672
0.60253024 0.017921355 -0.030005798
0.58641273 0.0772231 -0.029590242
0.59919858 0.080538467 -0.032500863
0.57849872 0.086080573 -0.022109529
0.56833577 0.077971794 -0.021467799
0.56911039 0.092003323 -0.013029099
0.60881603 0.095993839 -0.021664651
0.57668811 0.08231201 -0.022002038
0.58102179 0.10132658 -0.013738957
0.55617714 0.083439186 -0.0095599201
0.57870746 0.10415851 -0.0096375439
0.5813036 0.10616386 -0.0098037757
0.58603096 0.067185938 -0.037528317
0.58690047 0.06773746 -0.037457883
0.58432359 0.065905504 -0.037514415
0.61239868 0.081704207 -0.029371113
0.61328912 0.081971079 -0.029004922
0.62847137 0.098961361 -0.011947072
0.540694 0.079080068 -0.0073905066
0.61956418 0.10440112 -0.012198431
0.53355438 0.066400923 -0.010862764
0.65753984 0.084478326 -0.0019162609
0.58982885 0.019140277 -0.012397539
0.59249455 0.020475844 -0.017280705
0.59169739 0.019466681 -0.016942723
0.59358525 0.10964249 -0.01112034
0.59499478 0.019818539 -0.025636502
0.60790598 0.095712677 -0.021999532
0.53434563 0.061102189 -0.01390411
0.59012991 0.087682337 -0.022231763
0.6118871 0.088215686 -0.025114374
0.57070941 0.068656825 -0.024082446
0.51811749 0.081108756 -0.0053981724
0.51901191 0.081484541 -0.0051562814
0.51988816 0.081897825 -0.0049446672
0.52079666 0.082219481 -0.004662639
0.52172607 0.082456216 -0.0042834892
0.52259701 0.082645409 -0.0038363968
0.52355945 0.082629085 -0.0031997804
0.52445877 0.082606472 -0.0025416336
0.5255065 0.082501218 -0.0018235182
0.52643239 0.082616664 -0.0013174103
0.57154864 0.069373071 -0.02415828
0.55178279 0.018315762 0.032897737
0.57240283 0.070007831 -0.024168734
0.53017116 0.082716666 0.0010359976
0.51296228 0.04301165 0.043602675
0.53219092 0.082186453 0.0028568914
0.53315097 0.082052089 0.0036106165
0.53413141 0.08193627 0.0043613841
0.53510201 0.08180961 0.0051118848
0.57562542 0.099455208 -0.011465209
0.65703869 0.081617877 -0.003884237
0.65616578 0.081282094 -0.0041990341
0.65440178 0.080435187 -0.0045763785
0.65529335 0.081028484 -0.0043833531
0.59178072 0.067052193 -0.037896249
0.54298782 0.076262943 -0.011589751
0.5943014 0.075230367 -0.035117522
0.61284292 0.018638389 -0.027917778
0.61461705 0.089059733 -0.024124123
0.58306003 0.067979507 -0.035972573
0.55128813 0.077982329 -0.011924137
0.52492189 0.05375836 0.051265743
0.57361722 0.065247387 -0.02542353
0.56655705 0.096553273 -0.006520886
0.60822123 0.083829224 -0.029670641
0.5879547 0.10929545 -0.010368416
0.57878858 0.068067953 -0.032627068
0.60511601 0.01691968 -0.029719472
0.54709125 0.077430688 -0.012067938
0.60308295 0.11313149 -0.006121878
0.57603824 0.068081826 -0.026330819
0.53560221 0.075043507 -0.0070201354
0.61941165 0.085993424 -0.024649998
0.59484541 0.1108807 -0.009405287
0.57538527 0.062868409 -0.032421552
0.62504059 0.093002222 -0.01906522
0.59367853 0.019387651 -0.024047501
0.58555359 0.1061004 -0.013093875
0.61848992 0.091905177 -0.022155724
0.63002068 0.08240243 -0.021146581
0.57851207 0.06673497 -0.033699978
0.64953709 0.078013636 -0.0034978185
0.65037602 0.078816406 -0.0036463356
0.65120119 0.079574801 -0.0037898903
0.65204161 0.08022707 -0.0038246734
0.65286905 0.080981344 -0.0039602695
0.60345632 0.08072634 -0.032025132
0.60255736 0.080492936 -0.032430813
0.60162532 0.080240093 -0.032758087
0.58558583 0.069994144 -0.036107302
0.59174788 0.10578706 -0.014909747
0.59518403 0.075674646 -0.034920309
0.57322305 0.070815772 -0.024351349
0.64524305 0.080289312 -0.0039075729
0.64637327 0.079619497 -0.0026646079
0.64734793 0.079645634 -0.0020889631
0.64821339 0.080070235 -0.0019156726
0.56736112 0.097595647 -0.0069508106
0.64575982 0.089833558 0.0086466614
0.5965547 0.079144366 -0.032958113
0.58717275 0.082056828 -0.023297606
0.62500709 0.099705577 -0.012732595
0.62029684 0.099183783 -0.015234241
0.61369377 0.098502636 -0.018769976
0.6099782 0.097724915 -0.020406935
0.64889824 0.079029992 -0.0027191883
0.57299572 0.097764418 -0.011631898
0.57273936 0.096345708 -0.01256052
0.60638702 0.099724546 -0.018408665
0.60996604 0.10126825 -0.017503956
0.59620142 0.081493899 -0.031124592
0.60902596 0.11123989 -0.0087315533
0.58856088 0.10152579 -0.017194234
0.57991791 0.066846654 -0.034950353
0.57909435 0.066037804 -0.034785733
0.58188373 0.079340175 -0.024230398
0.55038851 0.077623829 -0.012180734
0.55388117 0.079704635 -0.011802828
0.59409297 0.073522665 -0.035791401
0.56771797 0.095026828 -0.0084689669
0.58728731 0.077830501 -0.029582208
0.57339025 0.085509777 -0.018785283
0.58497119 0.0030210607 -0.011714857
0.65290773 0.086742729 -0.00054777478
0.57065237 0.087959185 -0.016601082
0.60970891 0.090038665 -0.024015514
0.61644804 0.10926884 -0.0083271293
0.5926789 0.10933595 -0.011431028
0.59631175 0.11053161 -0.010166284
0.55816108 0.082787156 -0.011807702
0.59810305 0.10446515 -0.015735002
0.60827333 0.086846121 -0.026180647
0.60430813 0.018761827 -0.029608581
0.583314 0.091969915 -0.020187369
0.59914505 0.10051169 -0.01761863
0.59044987 0.11195033 -0.0071403086
0.58816099 0.078302525 -0.029434385
0.59253925 0.074303351 -0.035428654
0.58900374 0.079012334 -0.029519124
0.57725638 0.062568821 -0.035045203
0.60409397 0.01449799 -0.030433025
0.56114906 0.078584492 -0.01640431
0.56665611 0.089577913 -0.012452351
0.49677405 0.10629451 -0.06179383
0.59140962 0.018439358 -0.018358689
0.58187729 0.10202413 -0.013827803
0.54850739 0.071101725 -0.0157925
0.58043569 0.10554505 -0.0097977351
0.58517408 0.066549651 -0.037527364
0.57854468 0.060392469 -0.036504462
0.57936054 0.061288148 -0.036734667
0.61151731 0.081539407 -0.029713899
0.58489615 -0.0019386113 -0.011889142
0.58986431 0.079572052 -0.029449988
0.60606396 0.10198515 -0.016565766
0.59864873 0.020811591 -0.02837229
0.54785204 0.072242185 -0.015182359
0.56215531 0.075035505 -0.018757479
0.58065897 0.090661436 -0.020716505
0.6040349 0.099636085 -0.017803319
0.57190341 0.09569829 -0.012518879
0.59661371 0.021502176 -0.026028719
0.59580564 0.020660024 -0.02583201
0.57707787 0.099227153 -0.012363544
0.61993349 0.10179666 -0.013726488
0.54861701 0.07672406 -0.012514761
0.54923624 0.075752765 -0.013293967
0.51782554 0.079784147 -0.0064368984
0.51874834 0.080027156 -0.0060806954
0.51963985 0.080393441 -0.0058229347
0.5205189 0.080826044 -0.0056203799
0.52142596 0.08111456 -0.0052948841
0.52232194 0.081376418 -0.0049266759
0.52327126 0.081430964 -0.0043630353
0.52429724 0.081300057 -0.0036206222
0.52525997 0.081177466 -0.0028654772
0.52609801 0.081418246 -0.0024795926
0.52703053 0.081657209 -0.0021032847
0.52793962 0.081829712 -0.0016685021
0.52891344 0.081850104 -0.0010569345
0.52986217 0.081893072 -0.00047335401
0.5307886 0.081895038 0.00012567104
0.53178447 0.081718728 0.00094643125
0.53271967 0.08151678 0.0017293615
0.5336985 0.081423327 0.0024588418
0.53470153 0.081357293 0.0031950928
0.53564739 0.081274487 0.0038704406
0.57368493 0.09315218 -0.015213122
0.623604 0.083632439 -0.024111902
0.62454087 0.083643399 -0.023516562
0.62556231 0.083543152 -0.022858873
0.653539 0.079817325 -0.0046202908
0.65268403 0.079171143 -0.0045999493
0.65184486 0.078505568 -0.0045443382
0.65100968 0.0777665 -0.0044354266
0.65017569 0.077025227 -0.0043194662
0.64934814 0.076284088 -0.0042118682
0.58417451 0.0021486164 -0.011471158
0.5767529 0.10478742 -0.0074145575
0.57942361 0.07027784 -0.03007865
0.6475907 0.075139344 -0.0042800275
0.64849806 0.075677454 -0.0042655654
0.57281893 0.092531107 -0.015212962
0.64978725 0.092119806 0.0071087773
0.58707327 0.10883387 -0.010519733
0.58884859 0.10967577 -0.010135175
0.56909001 0.095393479 -0.0099587515
0.56828219 0.094352067 -0.0095287552
0.56989348 0.096357428 -0.010313824
0.57155627 0.097959928 -0.010691571
0.57241046 0.098745525 -0.010853906
0.58422011 0.07626497 -0.028164368
0.53293258 0.061156064 -0.012788411
0.59017754 0.017467361 -0.016258689
0.59325624 0.10515929 -0.015404453
0.58034623 0.0641222 -0.036454249
0.57026702 0.090483695 -0.015014926
0.64783913 0.07681302 -0.0035479027
0.64869618 0.077398822 -0.0035318609
0.60796303 0.082429431 -0.030662062
0.6070649 0.082053579 -0.030896962
0.59190542 0.11163051 -0.0079359664
0.60529876 0.08123906 -0.031344682
0.60438812 0.080944888 -0.031652067
0.5573197 0.078823574 -0.014968207
0.61147416 0.10752571 -0.011959235
0.58644694 0.070620522 -0.036093455
0.53197092 0.058181755 -0.012826553
0.56941664 0.089843035 -0.014989877
0.58813041 0.0015332483 -0.012755662
0.60601747 0.017304583 -0.029551473
0.63206553 0.066893004 -0.025327116
0.56330156 0.083102852 -0.014937188
0.56416523 0.083796464 -0.01500754
0.56500441 0.084587254 -0.015181168
0.56581903 0.0853948 -0.015370982
0.59326351 0.078893013 -0.032779925
0.59415376 0.079285853 -0.032567222
0.59503549 0.079732805 -0.03238041
0.59592134 0.080177709 -0.032203294
0.59679723 0.08065626 -0.032065477
0.59768039 0.081116386 -0.031908259
0.59855455 0.081613764 -0.031797037
0.59944302 0.082041316 -0.031595625
0.60035819 0.082336396 -0.031277243
0.60126609 0.082593814 -0.030930862
0.60219258 0.0828126 -0.03054559
0.60308963 0.083192758 -0.030308193
0.60398006 0.08359351 -0.030100884
0.58688319 0.096664652 -0.020126825
0.5686726 0.085360281 -0.017595084
0.60757482 0.016353283 -0.029582836
0.56548202 0.06321758 -0.022959556
0.57825971 0.065237075 -0.034624409
0.5774551 0.064416863 -0.034439202
0.57408386 0.071441695 -0.024321605
0.56664056 0.086203739 -0.0155611
0.59910691 0.094371065 -0.020344459
0.5685209 0.096070878 -0.0089027509
0.59147865 0.071972102 -0.036132686
0.59059358 0.071517259 -0.036310796
0.56830752 0.087655865 -0.015787164
0.6475113 0.073342182 -0.0050575975
0.55041158 0.067929834 -0.017930169
0.64784503 0.082709752 -0.00030702545
0.61765307 0.10761865 -0.010147016
0.61576331 0.10746656 -0.011211345
0.6027354 0.11215113 -0.0074963416
0.5652793 0.089222737 -0.010959214
0.57683641 0.068982869 -0.026602315
0.63299334 0.066991173 -0.02482116
0.54609311 0.071308166 -0.015476694
0.59605014 0.022035236 -0.024734385
0.61590362 0.024012996 -0.026846712
0.62109405 0.026493959 -0.025608396
0.58681017 0.0660486 -0.038191117
0.56917363 0.088347472 -0.015853716
0.57174277 0.090236709 -0.015893476
0.59346771 0.020409202 -0.020816691
0.61154824 0.09687648 -0.020720797
0.59195518 0.097675741 -0.019691406
0.57933319 0.086876556 -0.022257654
0.60018605 0.10655162 -0.014252303
0.61729854 0.10661841 -0.011508987
0.56612474 0.083308391 -0.017405553
0.56544143 0.078258723 -0.01949835
0.60845244 0.10190087 -0.017003747
0.62053037 0.10434683 -0.011541312
0.60539818 0.11007015 -0.010006797
0.62687564 0.093281806 -0.01809709
0.59976178 0.083125204 -0.030291168
0.59352887 0.11373197 -0.0047337203
0.5771786 0.066347882 -0.032191962
0.54979414 0.068876438 -0.017108865
0.58099717 0.062993981 -0.037132189
0.65142596 0.087068066 0.00029183822
0.57444477 0.087967835 -0.018250441
0.61456758 0.10912852 -0.0093952324
0.59073985 0.080105916 -0.029368561
0.56623846 0.072965413 -0.022501601
0.57604212 0.083424635 -0.021360004
0.55021769 0.066168204 -0.018549159
0.56993139 0.092809349 -0.013219316
0.59159374 0.080616236 -0.029238125
0.55304283 0.075672776 -0.014899542
0.61115408 0.10294639 -0.016204262
0.57348603 0.074539073 -0.023459489
0.60030216 0.092742242 -0.022181917
0.58323443 0.073092625 -0.03207792
0.6151185 0.10514668 -0.013608673
0.51847708 0.078511059 -0.0068976926
0.51928169 0.078795567 -0.0066734771
0.57406932 0.090414144 -0.0165981
0.52117723 0.079561636 -0.0061017857
0.52208257 0.079843901 -0.0057564401
0.52299136 0.080030985 -0.0053106956
0.52398205 0.079896741 -0.0047517656
0.52493829 0.080010615 -0.0040677823
0.52585185 0.080101013 -0.0035231707
0.52674073 0.080425754 -0.0032314723
0.52765572 0.080745965 -0.0029336575
0.52852845 0.080946401 -0.0025347241
0.52950329 0.080976218 -0.001933859
0.53044313 0.081012703 -0.0013528559
0.5314095 0.080991834 -0.00070467376
0.53238124 0.08086966 4.2926986e-05
0.53330451 0.080766678 0.00073625747
0.53431898 0.080723874 0.0014501137
0.53525335 0.080725431 0.0020443057
0.53621006 0.080644317 0.0027225481
0.55128759 0.068678133 -0.01805382
0.6137051 0.088771403 -0.024446607
0.62481308 0.084972918 -0.022441955
0.62650186 0.083549842 -0.022263834
0.62743276 0.083656631 -0.021769179
0.5590415 0.079939574 -0.014860434
0.58655 0.1093146 -0.0092906049
0.58304733 0.10724629 -0.0096612656
0.58115792 0.06486062 -0.036582269
0.6584698 0.084485106 -0.0013314963
0.58217502 0.10670348 -0.0097316047
0.591663 0.073822886 -0.035553377
0.61635739 0.083931662 -0.026783718
0.56326264 0.086744137 -0.012078186
0.58216363 0.099959493 -0.015845262
0.64829284 0.085858814 0.001405349
0.60014552 0.020400351 -0.029219465
0.62661481 0.091611929 -0.018929539
0.64916903 0.086529851 0.0013729802
0.6500079 0.087247223 0.0012871544
0.58934379 0.080049917 -0.028207382
0.57463008 0.064805128 -0.028465575
0.57788581 0.061526962 -0.03582342
0.57870615 0.06258186 -0.036174208
0.57951367 0.063396819 -0.03635652
0.5747335 0.10240209 -0.0085966
0.58512443 0.10935809 -0.0082219709
0.58071721 0.10686955 -0.0087803733
0.55827278 0.07561072 -0.017640514
0.60610223 0.09502618 -0.022523321
0.58383119 0.10499144 -0.013209448
0.58643657 0.10661635 -0.012997254
0.61395299 0.021131862 -0.027599961
0.61397743 0.090172999 -0.023474894
0.58955508 0.11157427 -0.0073779896
0.57049298 0.064030245 -0.024304226
0.5713008 0.064759813 -0.024454545
0.57212728 0.065729208 -0.024729349
0.57295895 0.066451587 -0.024835981
0.57380259 0.067091897 -0.024858428
0.57466519 0.067717165 -0.024849283
0.57494909 0.071921185 -0.02424348
0.5754925 0.068447672 -0.024954613
0.57631177 0.069253638 -0.02513303
0.57476348 0.10931735 0.0014203363
0.575643 0.10998288 0.0013305552
0.57649016 0.11055931 0.0013844606
0.57736033 0.11116853 0.0013729183
0.57820857 0.11174703 0.0014233133
0.57714987 0.070127048 -0.025353348
0.57797325 0.071005076 -0.02558586
0.57881367 0.071825646 -0.025786486
0.57957685 0.072725922 -0.026056465
0.58034623 0.073490158 -0.02620526
0.58123124 0.074260876 -0.026330914
0.56052184 0.079611763 -0.015670395
0.61642367 0.08973673 -0.02358664
0.57190859 0.08590465 -0.018048514
0.583574 0.099990278 -0.016996451
0.53906626 0.070601612 -0.013148523
0.59754717 0.11190896 -0.0085733132
0.59609759 0.075997815 -0.034669619
0.60487539 0.083964773 -0.029858386
0.60577339 0.084318288 -0.029594589
0.5695467 0.085830115 -0.017454864
0.58203614 0.075161301 -0.026588615
0.60050189 0.010291861 -0.031254206
0.58286953 0.075879529 -0.026678545
0.58774751 0.097254775 -0.019959087
0.58370924 0.076602571 -0.026769981
0.57664818 0.063358836 -0.034048919
0.56330132 0.093107209 -0.0054985629
0.59125459 0.076392949 -0.033928007
0.61092705 0.09791483 -0.020012381
0.58971566 0.071044602 -0.036443118
0.58884937 0.07050404 -0.036535148
0.58797967 0.069960192 -0.036627781
0.58710837 0.069420114 -0.03671601
0.5293445 0.069201492 -0.0078762732
0.65165186 0.07662683 -0.0051537221
0.61669636 0.10757487 -0.010713991
0.59899771 0.10483988 -0.015496401
0.59442413 0.0066191647 -0.027764915
0.55900073 0.0835004 -0.011908538
0.58456367 0.077303208 -0.026854128
0.58539951 0.077957846 -0.026871869
0.5369935 0.065585911 -0.014130536
0.53783715 0.066377491 -0.014295765
0.58623922 0.078604288 -0.026888711
0.57902485 0.10198778 -0.011544408
0.58707052 0.079269968 -0.026911048
0.59247333 0.081145503 -0.029153902
0.61247605 0.097094707 -0.020340528
0.59643167 0.099551685 -0.018490901
0.58792436 0.079966702 -0.026988795
0.48745939 0.10888724 -0.056566387
0.58882421 0.080408916 -0.02682629
0.60170615 0.10577653 -0.01458723
0.56380033 0.076724038 -0.019195708
0.59333938 0.081634961 -0.029013675
0.59424025 0.08206597 -0.028843472
0.58179551 -0.0034303875 -0.010459179
0.58966064 0.081064977 -0.026844531
0.57797223 0.067254946 -0.032451957
0.5401631 0.072885126 -0.01243212
0.65203953 0.08619535 -0.00062551879
0.58019084 0.062177256 -0.036942579
0.57321364 0.08978574 -0.016591946
0.61362875 0.10899873 -0.0098786764
0.61270905 0.10880987 -0.010294605
0.61553073 0.10921656 -0.0088522555
0.57820594 0.10125007 -0.011421484
0.59052515 0.08162012 -0.026771795
0.60632688 0.10345437 -0.01567314
0.56155705 0.088851981 -0.0089361267
0.61963147 0.087564804 -0.02379464
0.59139836 0.082158454 -0.026697267
0.61263853 0.10584593 -0.013776583
0.62878543 0.093451254 -0.017084008
0.62698984 0.10267401 -0.0080172438
0.626073 0.1026066 -0.0085418019
0.61420202 0.10497249 -0.014046842
0.56356567 0.091351911 -0.0078446986
0.58464742 0.073053844 -0.03318252
0.57492763 0.09104199 -0.016608054
0.54349935 0.069508716 -0.015548112
0.53134525 0.059051849 -0.011934455
0.5397048 0.069645703 -0.013952738
0.52370805 0.078555398 -0.005598533
0.52469444 0.078573801 -0.0050237942
0.52556705 0.078801401 -0.0045910683
0.52644718 0.079109848 -0.0042572273
0.52734298 0.079480469 -0.0040190974
0.52825266 0.079800583 -0.0037367798
0.52916181 0.079980507 -0.0033029367
0.53016764 0.079952456 -0.0026435729
0.5310815 0.080034308 -0.0021089821
0.53198558 0.080096781 -0.0015694487
0.53299743 0.079945654 -0.00077694666
0.53395587 0.079911552 -0.00011823213
0.53489649 0.079922602 0.00047930991
0.53582346 0.079936206 0.0010676229
0.53677011 0.080168076 0.001462823
0.53767914 0.080503814 0.0017084728
0.59228218 0.082613014 -0.026538651
0.59317988 0.08299578 -0.026358953
0.59407604 0.083468832 -0.026204541
0.62384588 0.085036032 -0.023093976
0.62291157 0.085028514 -0.023692215
0.62192374 0.08506459 -0.024300627
0.62099433 0.08496359 -0.024806783
0.62003529 0.084819682 -0.025241029
0.61909258 0.084692635 -0.02570238
0.61819983 0.084400721 -0.026085174
0.61725658 0.084200308 -0.026424231
0.61542606 0.083716929 -0.027161883
0.61449981 0.083513632 -0.027556252
0.61355978 0.083394751 -0.028036203
0.64745694 0.0852044 0.0014150599
0.58908397 0.10454392 -0.015501071
0.5949505 0.083948687 -0.02605262
0.61652678 0.022067528 -0.026559923
0.59581989 0.084382713 -0.025841
0.57580149 0.072557144 -0.024246329
0.64700335 0.076490276 -0.0038649968
0.59927982 0.090036809 -0.0225107
0.61841589 0.099049337 -0.016303133
0.59668416 0.08493796 -0.025771765
0.57665509 0.073188946 -0.024249282
0.56032705 0.094704024 0.0033952447
0.57752341 0.073806733 -0.024210744
0.56195343 0.096542262 0.0027571011
0.56276238 0.097432315 0.0024749083
0.56357878 0.09831173 0.0021980905
0.56439394 0.099265665 0.0018394515
0.56521308 0.10007279 0.0016424849
0.56603861 0.10087229 0.0014493943
0.56688672 0.1018007 0.0011029963
0.56769818 0.1026122 0.00090368389
0.56850851 0.1033585 0.00078388519
0.56935346 0.10414118 0.00060124538
0.57019585 0.10492687 0.00041099114
0.57102686 0.10565365 0.00029884625
0.57187027 0.10636464 0.00019381064
0.57272327 0.10706905 8.9851601e-05
0.57357711 0.10776911 -9.5432333e-06
0.5744139 0.10841841 -4.1404128e-05
0.57528389 0.10910298 -0.00013382357
0.57614434 0.10972746 -0.00015207703
0.57698995 0.11030278 -0.00010353466
0.57785702 0.1109172 -0.00011710916
