# .PCD v0.7 - Point Cloud Data file format
VERSION 0.7
FIELDS x y z
SIZE 4 4 4
TYPE F F F
COUNT 1 1 1
WIDTH 1316
HEIGHT 1
VIEWPOINT 0 0 0 1 0 0 0
POINTS 1316
DATA ascii
0.63137788 0.031393472 -0.015878733
0.63219768 0.032041807 -0.015711619
0.63302422 0.032597441 -0.015477208
0.63385844 0.033153132 -0.015245601
0.6346997 0.033617184 -0.014946593
0.63553077 0.034172561 -0.014714683
0.6363613 0.034728136 -0.014481374
0.63718808 0.035281699 -0.014248065
0.6380325 0.03574663 -0.013950358
0.63886029 0.036300559 -0.013718149
0.63968194 0.036953535 -0.013560334
0.64050359 0.037614834 -0.013410321
0.64129347 0.038561381 -0.013481797
0.64211345 0.039220951 -0.013334284
0.64291143 0.040070198 -0.013334064
0.64373201 0.040729601 -0.01318835
0.51718646 0.044593077 0.045751974
0.59379387 0.003346371 -0.022708833
0.59467226 0.0035353685 -0.022206735
0.59551173 0.0039983862 -0.02191193
0.59633064 0.0046461439 -0.021743115
0.59714979 0.0052943006 -0.021575203
0.59796888 0.0059420378 -0.021411791
0.59878719 0.0065893261 -0.021245377
0.59961593 0.0071445992 -0.021008767
0.6004355 0.0077932682 -0.020841155
0.60125279 0.0084403548 -0.020675642
0.60207248 0.0090905791 -0.020509331
0.60286826 0.0099221412 -0.020476311
0.60367423 0.010661174 -0.020376895
0.60447049 0.011490868 -0.020344775
0.60527229 0.012229703 -0.02024186
0.60608262 0.012970826 -0.020142844
0.60688812 0.013706341 -0.020044928
0.60770559 0.014357844 -0.019876216
0.60851467 0.015095586 -0.019777698
0.60932028 0.015833244 -0.019677984
0.61013657 0.016480925 -0.019511271
0.61095881 0.017130373 -0.019344658
0.61177534 0.01777659 -0.019178543
0.61259377 0.018426573 -0.019011332
0.61340082 0.019162849 -0.018911917
0.61423165 0.01971915 -0.018679608
0.61504799 0.020365829 -0.018513193
0.61586446 0.021014268 -0.018345281
0.61669642 0.021568172 -0.018114572
0.61751449 0.022216503 -0.017947659
0.61833233 0.022866379 -0.017779846
0.61915302 0.02350991 -0.017615832
0.61998147 0.024068031 -0.017381823
0.62080187 0.024712626 -0.017217511
0.62162071 0.025362786 -0.017049598
0.62243903 0.026010325 -0.016882585
0.6232655 0.026565146 -0.016650276
0.62408584 0.027214099 -0.016483562
0.62490505 0.027859561 -0.01631825
0.62572455 0.028505716 -0.016152738
0.62655145 0.029063374 -0.015918627
0.62737042 0.029711392 -0.015752414
0.62818962 0.03035735 -0.015586602
0.62901884 0.030913787 -0.015354293
0.62982458 0.031652477 -0.015253577
0.63065487 0.032208707 -0.015020567
0.63148654 0.032763459 -0.014787857
0.63232636 0.033228677 -0.014488251
0.63315719 0.033782829 -0.014256241
0.63400036 0.034249224 -0.013955434
0.63483882 0.03471224 -0.013656828
0.63568085 0.03517497 -0.013357522
0.63654912 0.035454657 -0.012927221
0.63740128 0.035826556 -0.012561518
0.63825458 0.036198437 -0.012197214
0.63909549 0.036662012 -0.011896707
0.63992703 0.03721898 -0.011662098
0.64074588 0.037867267 -0.011496085
0.64155132 0.038608525 -0.011404369
0.64235336 0.039462514 -0.011404048
0.6431638 0.040219024 -0.011328531
0.64395982 0.041066941 -0.011327412
0.59224939 0.0035962984 -0.022092776
0.59319288 0.0032349194 -0.021195598
0.59412134 0.0030566372 -0.020435013
0.59495008 0.0036118524 -0.020198504
0.59577 0.0042608753 -0.02003389
0.59658813 0.0049084062 -0.019868476
0.59740788 0.0055571934 -0.019700265
0.59822404 0.0062031727 -0.019534051
0.59904057 0.0068494505 -0.01936944
0.59985852 0.0074980836 -0.019198125
0.6006676 0.0082407668 -0.019099511
0.60146075 0.0090693887 -0.019067792
0.6022324 0.010087565 -0.019163966
0.60300219 0.01109923 -0.019263241
0.60378754 0.012024745 -0.019295419
0.6045838 0.012855098 -0.019262699
0.60537601 0.013685515 -0.019227881
0.60617238 0.014518848 -0.019192761
0.60697949 0.015257202 -0.019092945
0.60779649 0.015902329 -0.018928034
0.60858852 0.016735487 -0.018891916
0.60939771 0.017475151 -0.018792
0.61021644 0.018122151 -0.018625885
0.61103636 0.018770056 -0.018459572
0.611853 0.019419391 -0.01829146
0.6126706 0.020068146 -0.018124146
0.61348784 0.020710731 -0.017959936
0.61430734 0.021360924 -0.017791921
0.61513823 0.021916423 -0.017559914
0.61595398 0.022566555 -0.0173914
0.61677212 0.023209281 -0.017227387
0.6175887 0.023859 -0.017059173
0.61842072 0.024418263 -0.016825464
0.61923838 0.02506014 -0.016661553
0.62005675 0.025712209 -0.016491938
0.62088376 0.026266294 -0.016260229
0.62170327 0.026914561 -0.016093118
0.62252533 0.027562138 -0.015927503
0.62334281 0.028209955 -0.01576009
0.62417239 0.028766811 -0.015527083
0.62498897 0.029411117 -0.015361868
0.62580729 0.030057769 -0.015195856
0.62661225 0.030800328 -0.01509294
0.62742984 0.031447355 -0.014926728
0.6282391 0.0321864 -0.014826612
0.62907106 0.03274142 -0.014594901
0.62989873 0.033297252 -0.014360593
0.63075191 0.033670068 -0.013995789
0.63158125 0.034225963 -0.013762379
0.63242143 0.034691282 -0.013462073
0.63326281 0.035153117 -0.013164767
0.63410509 0.035618234 -0.01286356
0.63495719 0.035988878 -0.012499156
0.63584894 0.036084227 -0.011936562
0.6367237 0.036273368 -0.011436665
0.63761055 0.036369309 -0.010874571
0.6384992 0.036465894 -0.010311477
0.63934314 0.036930986 -0.01001227
0.64018482 0.037395868 -0.0097116642
0.64099038 0.038134109 -0.0096130576
0.64180845 0.038782001 -0.0094465148
0.6425941 0.039707605 -0.0094745532
0.6433906 0.040553164 -0.0094661927
0.64419913 0.041307818 -0.0093947863
0.52380204 0.048798956 0.047913037
0.5925979 0.0031218748 -0.019688662
0.59354585 0.0027590666 -0.018796286
0.59439069 0.0032250192 -0.018494278
0.59520751 0.0038718311 -0.018326964
0.59602606 0.004520155 -0.018158954
0.59684336 0.0051672403 -0.01799194
0.59767371 0.0057239928 -0.01776173
0.59848005 0.0064642355 -0.017658914
0.59928644 0.0072055622 -0.017557299
0.60006607 0.0081259618 -0.017588675
0.60082519 0.0092339069 -0.017753148
0.60158497 0.010341959 -0.017918522
0.60233426 0.011541668 -0.018150188
0.60308212 0.012739899 -0.018379556
0.60387576 0.013571233 -0.01834574
0.60464728 0.01458771 -0.018442113
0.60545146 0.015325811 -0.018342096
0.60624599 0.016157851 -0.018307077
0.60704327 0.016991686 -0.018271858
0.60784841 0.017728692 -0.018172143
0.60865492 0.018468857 -0.018069927
0.60947257 0.019116392 -0.017903514
0.61028153 0.019856598 -0.017802598
0.61110777 0.020411333 -0.017569588
0.61192667 0.021056673 -0.017405877
0.61275488 0.021615615 -0.017169166
0.61356455 0.022354551 -0.017070351
0.61439383 0.022911897 -0.016836042
0.61521077 0.023560904 -0.016667027
0.61602789 0.024207508 -0.016501015
0.61684662 0.02485265 -0.016337302
0.61766565 0.025502769 -0.016168291
0.6184811 0.026149722 -0.016000077
0.61931223 0.026707342 -0.015766466
0.62012935 0.027353168 -0.015601356
0.62095881 0.027908374 -0.015369345
0.62177926 0.028558398 -0.015201832
0.62259603 0.029206781 -0.01503342
0.62342745 0.029760143 -0.01480441
0.62424278 0.030407542 -0.014636397
0.62507337 0.030964727 -0.014402987
0.62588012 0.031704728 -0.014301472
0.62669826 0.032352649 -0.014134159
0.62751561 0.032999579 -0.013967346
0.6283462 0.033555437 -0.013734937
0.6291784 0.03411163 -0.013502327
0.630018 0.034574624 -0.01320432
0.63084751 0.035131212 -0.012969511
0.63168734 0.03559465 -0.012670104
0.63252705 0.036057882 -0.012371099
0.63338262 0.036430426 -0.012005694
0.63424933 0.036710199 -0.011573094
0.63514614 0.036715593 -0.010942203
0.63605016 0.036718685 -0.010314512
0.63697135 0.036540203 -0.0095508574
0.63788408 0.036453556 -0.0088563394
0.63876122 0.036642898 -0.0083597926
0.63960385 0.037108399 -0.0080595156
0.6404199 0.037754405 -0.007892563
0.64124948 0.038310632 -0.0076592136
0.64204389 0.039141834 -0.007622675
0.6428405 0.039975841 -0.0075920057
0.64363426 0.040805593 -0.0075550666
0.64446175 0.041360203 -0.0073247468
0.5521431 0.014281332 0.025134481
0.59199262 0.003098662 -0.018247226
0.59298724 0.002369687 -0.01709106
0.5938167 0.0029257049 -0.016854649
0.59464771 0.0034827883 -0.01662294
0.59546643 0.0041316506 -0.016453527
0.59628379 0.0047792355 -0.016285313
0.59709978 0.005425958 -0.016119502
0.59790677 0.0061673331 -0.016018884
0.59870005 0.0069997925 -0.015983868
0.59947038 0.0080145318 -0.01608354
0.60019362 0.0094015859 -0.016444104
0.60090619 0.010875179 -0.016872864
0.60163903 0.012166934 -0.017165029
0.60238934 0.013367262 -0.017397698
0.6031453 0.014473194 -0.017557468
0.60393029 0.015397837 -0.017589347
0.60471314 0.016319085 -0.017622625
0.60552061 0.017060237 -0.017520908
0.60632515 0.017799208 -0.017416794
0.60714042 0.018445402 -0.01724848
0.60795921 0.019093743 -0.017082268
0.60878783 0.01964912 -0.016849458
0.60959673 0.020390049 -0.016750643
0.6104272 0.020947335 -0.016515533
0.61124408 0.021594563 -0.01634882
0.61206043 0.022241026 -0.016184008
0.6128788 0.022889093 -0.016017495
0.61370754 0.023445006 -0.015782285
0.61452657 0.024094043 -0.015614573
0.61534292 0.024741 -0.01544616
0.61616194 0.025389679 -0.015279747
0.61699349 0.02594723 -0.015048237
0.61780888 0.026593406 -0.014879424
0.61863875 0.027149722 -0.014647614
0.61945546 0.027797481 -0.014478002
0.62027329 0.028445501 -0.014311489
0.62109071 0.029092776 -0.014144876
0.6219095 0.029740803 -0.013980963
0.62272763 0.030388966 -0.013813451
0.62354749 0.031038215 -0.013645838
0.6243757 0.03159361 -0.013413829
0.62518173 0.032333564 -0.013310113
0.62601262 0.032890756 -0.013076103
0.62684137 0.033445675 -0.012844993
0.62766933 0.034000833 -0.012612284
0.62850165 0.034558456 -0.012376474
0.62934065 0.035021164 -0.012079068
0.63017124 0.035577569 -0.011845958
0.63101059 0.036041133 -0.011543352
0.63186353 0.036412846 -0.011181548
0.63271838 0.036785457 -0.010816545
0.63358289 0.037065271 -0.010382345
0.63448298 0.037069667 -0.0097552538
0.63540632 0.03689006 -0.0089931991
0.63635111 0.036527798 -0.0081007304
0.63730466 0.036164481 -0.0072034011
0.6381799 0.036353193 -0.0067088539
0.63904661 0.036635689 -0.0062740436
0.63986373 0.037282735 -0.0061072512
0.64069158 0.037837781 -0.0058761016
0.6415118 0.03848806 -0.005708768
0.64231694 0.039227445 -0.005604933
0.64309818 0.040149666 -0.0056392904
0.643893 0.040981598 -0.0056019416
0.64472079 0.041536532 -0.0053725727
0.51882237 0.047588333 0.047079079
0.514615 0.041264158 0.03861656
0.59150338 0.0021580171 -0.01614942
0.59242857 0.0019786847 -0.015384434
0.59325939 0.0025361257 -0.015151824
0.59407759 0.0031840755 -0.014982611
0.59491903 0.0036495649 -0.014687905
0.59572577 0.0043901834 -0.014581889
0.59654307 0.0050384277 -0.014415576
0.59734589 0.0057773087 -0.014313061
0.59811664 0.0067963381 -0.014411136
0.59885037 0.0080866581 -0.014707801
0.59953642 0.0097470237 -0.015264454
0.60022455 0.011407694 -0.015823806
0.60096043 0.012699546 -0.016119571
0.60168397 0.014082035 -0.016479634
0.60246772 0.015007151 -0.016508713
0.6032604 0.01583728 -0.016472295
0.60406697 0.016577503 -0.016370479
0.60488534 0.017225571 -0.016203865
0.60571152 0.017779546 -0.015971757
0.60652965 0.018428132 -0.015802644
0.60735947 0.018984754 -0.015570734
0.60817742 0.019632811 -0.015401822
0.60900855 0.020190567 -0.015172411
0.60982442 0.020837029 -0.015001498
0.61065269 0.021392394 -0.014769489
0.61147255 0.02204236 -0.014605075
0.6122911 0.022691321 -0.014435463
0.61310643 0.023337379 -0.014269851
0.61393714 0.023894841 -0.014033341
0.61475295 0.024541307 -0.013865128
0.61556989 0.025189096 -0.013697916
0.61639065 0.025839787 -0.013531802
0.61720794 0.026487174 -0.013364689
0.61803693 0.027043343 -0.01313158
0.61885589 0.027692519 -0.012963668
0.61967242 0.028340131 -0.012799355
0.6204772 0.029078417 -0.01269384
0.6213184 0.029543424 -0.012396432
0.62212622 0.030284407 -0.012294316
0.6229527 0.030838737 -0.012062707
0.62377095 0.03148729 -0.011896594
0.62458795 0.03213466 -0.011726182
0.62540835 0.032785106 -0.011557569
0.62622613 0.03343273 -0.011392357
0.6270656 0.03389645 -0.011091549
0.62788421 0.034544632 -0.010926536
0.62872636 0.035009451 -0.010625831
0.62956762 0.03547395 -0.010326823
0.63039535 0.03602846 -0.010094814
0.63124895 0.036401894 -0.0097253108
0.63208961 0.036864966 -0.0094269048
0.63295281 0.037144363 -0.008998394
0.63384157 0.037240718 -0.0084360298
0.63481331 0.036692176 -0.0074077379
0.63580906 0.035961933 -0.0062530916
0.63676906 0.035506077 -0.0052922461
0.63763469 0.035786558 -0.0048576957
0.63847727 0.03625223 -0.0045620995
0.63929534 0.036900483 -0.0043951459
0.64012599 0.037457746 -0.004158346
0.640944 0.038105659 -0.0039910041
0.64177144 0.038660936 -0.0037584344
0.64257908 0.03940298 -0.0036562479
0.64337003 0.040232461 -0.0036247198
0.64415538 0.04115811 -0.003652937
0.64498323 0.041713599 -0.0034202076
0.64579844 0.042360015 -0.0032543752
0.59101748 0.0012141158 -0.014049612
0.59185791 0.0016779809 -0.013750905
0.59271413 0.0020524859 -0.013383201
0.59354407 0.0026095845 -0.013151192
0.59436005 0.003256808 -0.01298398
0.59517699 0.0039052346 -0.012813267
0.59598267 0.0046451744 -0.01271585
0.5968008 0.0052966438 -0.012546238
0.59754443 0.0064947349 -0.012773708
0.59824252 0.0080632837 -0.013267363
0.59890521 0.0099099148 -0.01395651
0.59956825 0.011754643 -0.014643957
0.6002925 0.013138819 -0.015006919
0.60106248 0.014154682 -0.015102094
0.6018551 0.01498525 -0.015064276
0.60268527 0.015542388 -0.014831466
0.6035009 0.016189292 -0.014665953
0.60431957 0.01683826 -0.014498441
0.60515028 0.017395444 -0.014264431
0.60597944 0.017952153 -0.014031521
0.60679632 0.018600022 -0.013863808
0.60761362 0.019247686 -0.013691995
0.60844266 0.019803857 -0.013461586
0.60927141 0.020359991 -0.013228176
0.61009079 0.021009402 -0.013061764
0.61092031 0.021566266 -0.012828354
0.61173689 0.022214262 -0.012657741
0.6125434 0.022954423 -0.012556326
0.61336899 0.023508403 -0.012320417
0.61418986 0.024158936 -0.012155703
0.61501807 0.024715019 -0.011923393
0.61582267 0.025454272 -0.011821077
0.61664194 0.026103685 -0.011653365
0.61747116 0.026660252 -0.011416955
0.61828965 0.027308933 -0.011250243
0.61911732 0.027864406 -0.011019534
0.61993295 0.028511185 -0.010848721
0.62076533 0.029070323 -0.010618411
0.62156874 0.029808464 -0.010517195
0.6223982 0.030364951 -0.010279286
0.62321812 0.031014729 -0.010112572
0.62404639 0.03157039 -0.0098797632
0.62487274 0.032124799 -0.0096472641
0.62568021 0.032866556 -0.0095474077
0.62649876 0.033515736 -0.0093756448
0.62731445 0.034162644 -0.0092119724
0.62813276 0.034811266 -0.0090442896
0.62896216 0.035367392 -0.0088063693
0.62981313 0.035738565 -0.0084428973
0.63064539 0.036296651 -0.0082089165
0.63147259 0.036851011 -0.007976627
0.63234955 0.037039272 -0.0074816598
0.63327467 0.036858663 -0.006719565
0.63429499 0.035942115 -0.0054304749
0.63532418 0.034933954 -0.0040749889
0.63623804 0.034846529 -0.0033796104
0.63708043 0.03531171 -0.0030826137
0.637923 0.035776898 -0.0027821569
0.63875085 0.036332097 -0.0025458776
0.63957971 0.036888126 -0.002312728
0.64039779 0.037537098 -0.0021475453
0.64121461 0.038184632 -0.0019784626
0.64203292 0.038833641 -0.0018116797
0.64286447 0.039392691 -0.0015776197
0.64365584 0.040222239 -0.0015398612
0.64445102 0.041055694 -0.001503882
0.6452691 0.041704882 -0.0013372292
0.64608455 0.042351559 -0.0011713167
0.64690059 0.042998981 -0.0010051742
0.58796066 -0.00075620925 -0.013119212
0.58884203 -0.00056517823 -0.012619514
0.58965653 8.1069767e-05 -0.012452601
0.59048516 0.00063700601 -0.012219693
0.59133756 0.0010089691 -0.011855289
0.59216642 0.001565086 -0.01161838
0.59298694 0.0022163193 -0.011451667
0.59380347 0.0028640328 -0.011285154
0.59461921 0.0035114426 -0.011116642
0.59542531 0.0042527299 -0.011013225
0.59624267 0.0049021719 -0.010847112
0.59701002 0.005917958 -0.010940388
0.59769577 0.0075821686 -0.011498542
0.59826118 0.010164918 -0.012710963
0.59893703 0.011918113 -0.013332914
0.59969628 0.013026534 -0.013496485
0.60049891 0.013764739 -0.013394569
0.60130548 0.0145061 -0.013291053
0.6021232 0.015154978 -0.013126341
0.60293841 0.015801756 -0.012958027
0.60376942 0.016359255 -0.012722619
0.60459983 0.016917061 -0.012491508
0.60541373 0.01756254 -0.012318896
0.60624427 0.018119683 -0.012085086
0.60707283 0.018676067 -0.011852778
0.60788971 0.019324293 -0.011686664
0.60870993 0.019974714 -0.011518151
0.6095382 0.020530714 -0.011283942
0.6103552 0.02117892 -0.011115029
0.61117232 0.021827329 -0.010946916
0.6119895 0.022475658 -0.010781004
0.61281794 0.023031835 -0.010546894
0.61362261 0.023771567 -0.010442378
0.61445183 0.024328131 -0.010210468
0.61527133 0.024977963 -0.010041856
0.61609954 0.025533965 -0.0098090461
0.61691719 0.026182927 -0.0096438536
0.61773294 0.026830055 -0.0094729504
0.61855251 0.027479865 -0.0093032178
0.61938012 0.028035272 -0.0090698292
0.62019974 0.028685989 -0.008905625
0.6210165 0.029333597 -0.0087358523
0.62184381 0.029888909 -0.0085006235
0.62266004 0.030536618 -0.0083349813
0.62348044 0.031187559 -0.008164647
0.62429786 0.031836193 -0.0079980148
0.62511188 0.032482114 -0.0078317327
0.62594175 0.033039141 -0.0075953528
0.62674832 0.033780251 -0.0074945465
0.62757891 0.034337979 -0.0072595272
0.62839603 0.034986492 -0.0070941839
0.6292128 0.035633393 -0.0069282316
0.63006538 0.036005501 -0.0065629389
0.63091737 0.036377046 -0.0061973054
0.63179278 0.036563389 -0.0056973482
0.6327796 0.035922915 -0.0046094684
0.63385886 0.034545522 -0.0029919744
0.63482165 0.034090739 -0.0020365885
0.63568634 0.034370486 -0.0016025482
0.63654083 0.034744021 -0.0012383746
0.6373682 0.035298813 -0.0010014252
0.63819855 0.035856366 -0.0007676055
0.63901728 0.036505811 -0.00060245756
0.63984418 0.037060592 -0.00036667124
0.64067239 0.037616394 -0.00013428178
0.64149237 0.038266696 3.5711302e-05
0.64232153 0.038823847 0.00026537353
0.6431275 0.039564654 0.00036938782
0.64394325 0.040212363 0.00053882936
0.64473605 0.04104447 0.00057216315
0.64552808 0.041875847 0.00060777686
0.64634824 0.042526625 0.00077554997
0.647165 0.04317452 0.00094531965
0.64798212 0.043825649 0.0011134134
0.6486783 0.045392122 0.00062102883
0.64941049 0.046683747 0.00032755043
0.65020561 0.047524519 0.00035116903
0.65101838 0.048283454 0.00043123894
0.651721 0.049133215 0.00059108651
0.65252411 0.050240766 0.00035043334
0.65323889 0.051340707 0.00026222391
0.6540212 0.052111045 0.00034313081
0.6547429 0.053156968 0.00026272066
0.65549165 0.054091141 0.00028299433
0.65617758 0.055101201 0.00026418609
0.58578527 -0.002540106 -0.011688515
0.58662862 -0.0020734114 -0.011391807
0.58745438 -0.0015185291 -0.011161999
0.58828324 -0.00096319476 -0.010922789
0.58915043 -0.00068121124 -0.010492488
0.58996564 -3.3853343e-05 -0.010326876
0.59078574 0.0006165863 -0.010155563
0.59161466 0.0011731148 -0.0099196536
0.59244066 0.0017274739 -0.0096891439
0.59323686 0.0025626281 -0.0096519049
0.59406656 0.0031199688 -0.009416705
0.59488273 0.00376831 -0.0092505133
0.59568715 0.0045091673 -0.0091458568
0.59646726 0.0054352796 -0.009173315
0.59713817 0.0071874689 -0.0097969156
0.59770226 0.0097729433 -0.011008038
0.59832031 0.011989154 -0.011958772
0.59913611 0.012637258 -0.011792059
0.59993887 0.013376078 -0.011689343
0.60074437 0.014116537 -0.011584928
0.60157555 0.014674513 -0.011351218
0.60240066 0.015228363 -0.011119409
0.60323256 0.015787151 -0.010884499
0.60405016 0.016435768 -0.010716386
0.60487825 0.016991934 -0.010482377
0.60569382 0.017639225 -0.010315364
0.60653585 0.018104762 -0.010016358
0.60734284 0.018846141 -0.0099145416
0.60818338 0.019311339 -0.0096102757
0.60898674 0.020049989 -0.0095080296
0.60980368 0.020698557 -0.0093405461
0.61063331 0.02125556 -0.0091062374
0.61145175 0.021905487 -0.0089402553
0.61226761 0.022553289 -0.008772132
0.61308306 0.023200465 -0.0086023491
0.61390227 0.023850977 -0.0084359767
0.61471939 0.024499245 -0.0082670245
0.61554611 0.025054414 -0.0080361543
0.61636317 0.025703041 -0.0078662513
0.61718106 0.026352113 -0.0076962085
0.61800975 0.026908549 -0.0074646994
0.618828 0.027557919 -0.0072945468
0.61965573 0.028113581 -0.0070624771
0.62046403 0.028856682 -0.0069615711
0.62129074 0.02941158 -0.0067238612
0.62211031 0.030062344 -0.0065596784
0.62292522 0.030709054 -0.0063880756
0.62374097 0.031356592 -0.0062193433
0.62456006 0.032007143 -0.0060541602
0.6253764 0.032654975 -0.0058854073
0.62620723 0.033213023 -0.0056493776
0.62702203 0.033859842 -0.0054815756
0.62785023 0.034415878 -0.0052511562
0.62866938 0.035065547 -0.0050821034
0.62951154 0.035530236 -0.0047841566
0.63037455 0.035808049 -0.0043502767
0.63132489 0.035444506 -0.0034621777
0.63234204 0.034527622 -0.002176478
0.63340122 0.033333182 -0.00069299707
0.63430619 0.03333611 -6.0394668e-05
0.63515943 0.033709168 0.00030179939
0.63600183 0.034174714 0.00060347549
0.63681531 0.034820873 0.00077418372
0.63765979 0.035287701 0.0010707867
0.63847679 0.035936281 0.0012409063
0.63930368 0.036491204 0.0014732056
0.64012235 0.037141308 0.0016420486
0.64093673 0.037787855 0.0018095609
0.64175624 0.038440604 0.0019795541
0.64255959 0.039179839 0.0020818096
0.64337659 0.039828908 0.0022515224
0.6441955 0.040476445 0.0024180051
0.64503711 0.040942129 0.0027191918
0.64585251 0.04158866 0.0028829842
0.64665949 0.042331461 0.0029884803
0.64745057 0.043162052 0.003024359
0.64826739 0.043811161 0.0031894117
0.6490851 0.044459756 0.0033596044
0.64990205 0.045109548 0.0035262869
0.65066022 0.046219647 0.0033661253
0.65145391 0.047053479 0.0034057845
0.65221083 0.048163414 0.0032414026
0.65299135 0.049087685 0.0032121146
0.65379781 0.049832873 0.0033107004
0.65451127 0.050922628 0.0031965435
0.6552847 0.052061319 0.0029818648
0.65605527 0.053285785 0.0026931895
0.65678036 0.054194856 0.0027236752
0.65747947 0.055282097 0.0026165466
0.65813899 0.056393363 0.002518195
0.55302489 0.014458042 0.025625478
0.50315636 0.079197697 -0.025285322
0.5828054 -0.0050669159 -0.010367133
0.58363551 -0.004509205 -0.010133924
0.58445036 -0.0038620215 -0.0099668112
0.58526528 -0.003213984 -0.0098039983
0.58611125 -0.0027466216 -0.0094995117
0.58693665 -0.0021924009 -0.0092658326
0.58777881 -0.0017270218 -0.0089643355
0.58859563 -0.0010784906 -0.008794263
0.58942652 -0.00052004936 -0.0085595632
0.59024352 0.00012874068 -0.0083943605
0.59105933 0.00077684701 -0.0082249381
0.59187627 0.0014254954 -0.0080574453
0.59270447 0.0019817986 -0.0078213755
0.59351075 0.0027239264 -0.0077221598
0.59432584 0.0033714238 -0.0075530065
0.59514451 0.004022385 -0.0073810043
0.59593594 0.0048547126 -0.0073469458
0.59669071 0.0059679234 -0.0075052772
0.59714496 0.0093788393 -0.0093095927
0.59777075 0.011504257 -0.010192051
0.59857416 0.01224377 -0.010085034
0.59939229 0.012894079 -0.0099198213
0.60019827 0.013635388 -0.009817306
0.60102457 0.014190143 -0.0095820269
0.60185534 0.014748026 -0.009350677
0.60268426 0.015304498 -0.0091127269
0.60351455 0.015862109 -0.0088784071
0.60434031 0.016416708 -0.008648538
0.60515827 0.017066345 -0.0084774652
0.60597402 0.017714111 -0.0083088027
0.6068064 0.018273609 -0.0080759032
0.60761952 0.018919498 -0.0079099098
0.60843915 0.019570224 -0.0077414177
0.60926569 0.020125274 -0.0075042574
0.61008376 0.020774966 -0.0073351553
0.61091447 0.021333452 -0.0071037654
0.6117171 0.022072354 -0.0070011998
0.61253422 0.022721265 -0.0068331268
0.61336434 0.023279116 -0.0065962672
0.6141687 0.024019327 -0.006495432
0.61499852 0.024576869 -0.0062611019
0.61581558 0.025225855 -0.0060910489
0.61663264 0.025874563 -0.0059258267
0.61745936 0.02642973 -0.0056899767
0.61827695 0.02707921 -0.0055233538
0.61909306 0.027727129 -0.0053530512
0.61992383 0.028285526 -0.0051207021
0.62073815 0.028932091 -0.0049485099
0.62155545 0.029581485 -0.0047839964
0.62237436 0.030231619 -0.0046143932
0.62320322 0.030788437 -0.0043794941
0.62401813 0.031435821 -0.0042102318
0.62483698 0.032085989 -0.0040423684
0.62565315 0.032734435 -0.0038747161
0.62647098 0.03338398 -0.0037072136
0.62728918 0.034032911 -0.0035388705
0.62812883 0.034496624 -0.0032407444
0.62898117 0.034868203 -0.0028753509
0.62986815 0.034962595 -0.0023114572
0.63085735 0.03431933 -0.0012226774
0.63191384 0.033125672 0.00025763552
0.63288778 0.032575555 0.0012802478
0.6337676 0.032764345 0.0017779034
0.63461947 0.033136319 0.0021421867
0.6354503 0.033694688 0.0023798665
0.63626665 0.034344304 0.0025491691
0.63706076 0.035177298 0.0025824483
0.63787717 0.035826668 0.002751841
0.63869071 0.036474448 0.002921313
0.63950998 0.037126519 0.0030915362
0.64032698 0.037775092 0.003257249
0.64111811 0.038607046 0.0032937475
0.64188552 0.03962525 0.0032005825
0.64269358 0.040364865 0.0033037285
0.64353305 0.040827584 0.003602105
0.64438397 0.041199788 0.0039692977
0.64524144 0.041572381 0.0043332223
0.64609349 0.041945685 0.0047012251
0.6469357 0.042410482 0.0049965316
0.64773983 0.043150224 0.005100457
0.64857006 0.043708574 0.005333567
0.64937425 0.044449233 0.0054357834
0.65017653 0.04518798 0.0055384981
0.65098298 0.045930222 0.0056449147
0.65178889 0.046673335 0.0057449006
0.65256798 0.047596905 0.0057148123
0.65338576 0.048246283 0.0058876649
0.65416461 0.049170181 0.0058580972
0.65494037 0.050432488 0.0055504441
0.65565401 0.051407889 0.0055436315
0.6563552 0.052424204 0.0055036498
0.65711021 0.053571176 0.005292139
0.65790999 0.05477355 0.004996106
0.65860844 0.055950895 0.0048044818
0.65930492 0.057214037 0.004533831
0.55390227 0.01463596 0.026119575
0.52312762 0.049238548 0.049036089
0.57976645 -0.0071359542 -0.0093778465
0.58061934 -0.0067636394 -0.0090155229
0.58143872 -0.0061127231 -0.0088449903
0.58225524 -0.0054643666 -0.0086770579
0.5830968 -0.0049990993 -0.0083791502
0.58392262 -0.0044444422 -0.0081439419
0.58476448 -0.0039793039 -0.0078419549
0.58558416 -0.0033284356 -0.0076741418
0.58640945 -0.0027739103 -0.0074371221
0.58722931 -0.0021224255 -0.0072723497
0.58804291 -0.0014761034 -0.0071007069
0.58887303 -0.00091796764 -0.0068670576
0.5896911 -0.00026799669 -0.0067012748
0.5905081 0.00038107042 -0.0065283319
0.59132409 0.0010293742 -0.0063601192
0.59215367 0.0015869571 -0.0061289901
0.59296745 0.0022336761 -0.0059614778
0.593786 0.0028842802 -0.0057920143
0.59460419 0.0035353086 -0.0056220014
0.59539527 0.0043672598 -0.0055858726
0.59619749 0.0051065306 -0.0054834373
0.59669799 0.0081544258 -0.0070201848
0.59720242 0.011205057 -0.0085536214
0.59801769 0.011852972 -0.0083882781
0.59884501 0.01240897 -0.0081537692
0.59965181 0.013151448 -0.0080466727
0.60047895 0.013707127 -0.0078132944
0.60129583 0.014356276 -0.0076442016
0.60212332 0.014912052 -0.0074131619
0.6029523 0.015468864 -0.0071797417
0.60378242 0.016026497 -0.0069447523
0.60461265 0.016584549 -0.006709272
0.60542738 0.017231692 -0.0065391799
0.60625571 0.017788252 -0.0063060205
0.60707301 0.018437913 -0.0061394777
0.60789144 0.019088125 -0.005969475
0.60870701 0.019735973 -0.005798202
0.60953593 0.020293027 -0.0055635525
0.61034024 0.021034101 -0.0054646069
0.61117041 0.021592015 -0.0052283071
0.61198467 0.022239085 -0.0050614644
0.61281669 0.022798432 -0.0048244447
0.61363143 0.023445994 -0.0046557523
0.61443824 0.024187889 -0.004553196
0.61527562 0.02465052 -0.0042520203
0.61608195 0.025392927 -0.0041503543
0.61691064 0.025949864 -0.003918455
0.61772597 0.026597835 -0.003749992
0.61854482 0.027248118 -0.0035786694
0.61937219 0.027804043 -0.00334509
0.62020135 0.028361414 -0.0031117103
0.62100518 0.029101877 -0.0030088646
0.62182301 0.029751837 -0.0028384018
0.6226393 0.030400371 -0.002673089
0.62346774 0.030957012 -0.0024378893
0.62427497 0.031699333 -0.0023314536
0.6251151 0.032164574 -0.0020348972
0.62591833 0.032904271 -0.0019322215
0.62674791 0.033461012 -0.0016958119
0.62758887 0.03392503 -0.0013970553
0.6284532 0.034203667 -0.00096557522
0.62938058 0.034021884 -0.00020792615
0.63041109 0.033011887 0.0011405365
0.63143492 0.032091148 0.0024262967
0.63236481 0.031910505 0.0031862522
0.63322836 0.032190058 0.0036176622
0.63407141 0.032657586 0.0039174291
0.63487411 0.033396956 0.0040200246
0.63569385 0.03404852 0.0041867672
0.63648272 0.034882478 0.0042256862
0.63721639 0.036177073 0.0039342805
0.63801944 0.036914978 0.004035376
0.63882399 0.037656311 0.0041384315
0.63961631 0.038489845 0.0041758902
0.64040858 0.039323397 0.0042133396
0.64115238 0.040525991 0.0039884308
0.6419934 0.040990461 0.0042882469
0.64284664 0.041362736 0.0046536708
0.64372534 0.041552972 0.005153548
0.64457583 0.041923583 0.0055173207
0.64543259 0.042296804 0.0058840746
0.64628607 0.042668093 0.0062486986
0.64715141 0.042947784 0.0066791484
0.6480183 0.043229613 0.0071114292
0.64884448 0.04378479 0.0073469188
0.64963728 0.04461797 0.007384968
0.65045524 0.045268547 0.0075513804
0.65125942 0.046009567 0.0076534357
0.6520766 0.046659674 0.0078221289
0.65286642 0.047490541 0.0078579877
0.65368336 0.048139915 0.0080277799
0.65447772 0.048975579 0.0080680484
0.65525752 0.049902175 0.0080360016
0.6560021 0.051105134 0.0078131128
0.65675795 0.052215755 0.0076523209
0.65747589 0.053364091 0.0074857567
0.65822631 0.05469048 0.0071291141
0.65896195 0.055849552 0.006921893
0.65966541 0.057113096 0.0066474229
0.55478209 0.014829898 0.026607271
0.55564815 0.015090575 0.027041772
0.52186239 0.043437105 0.03332749
0.5270437 0.05312746 0.049610566
0.5089851 0.041862406 0.023859318
0.56522572 0.020065889 0.032439373
0.57841241 -0.0082769077 -0.0077914959
0.57923102 -0.0076263039 -0.0076247733
0.58005822 -0.0070705689 -0.0073937541
0.58088595 -0.0065144743 -0.0071577746
0.58172882 -0.0060484321 -0.0068565877
0.58255643 -0.0054924004 -0.0066202777
0.58338547 -0.0049353098 -0.0063861785
0.58421415 -0.0043783747 -0.0061534094
0.58503312 -0.0037276149 -0.0059797959
0.58585972 -0.0031719278 -0.0057493867
0.58667701 -0.0025223242 -0.0055770436
0.58750767 -0.0019638361 -0.005343304
0.58832228 -0.0013158321 -0.0051760115
0.58912665 -0.00057489634 -0.0050694756
0.58995473 -1.8371269e-05 -0.0048387963
0.59078372 0.00053901772 -0.0046008769
0.59160125 0.0011889996 -0.0044353241
0.59241831 0.0018385663 -0.0042662406
0.5932346 0.0024876057 -0.0040952479
0.594051 0.0031367643 -0.003925886
0.59486538 0.0037841708 -0.0037597434
0.595671 0.0045269914 -0.0036552774
0.59646118 0.005359157 -0.0036197691
0.59661758 0.010993885 -0.0069882497
0.59749556 0.011181954 -0.0064897221
0.59830034 0.01192366 -0.0063857762
0.59910691 0.012666821 -0.0062840404
0.59992164 0.013314465 -0.0061167283
0.60075116 0.013872188 -0.005879798
0.60156691 0.014520595 -0.0057113655
0.60239625 0.015077863 -0.0054786559
0.60322589 0.015635423 -0.0052433666
0.60405272 0.016191008 -0.0050077671
0.60488254 0.016748568 -0.0047726873
0.60571313 0.017307192 -0.0045393379
0.60652727 0.017954426 -0.0043691956
0.60734576 0.01860483 -0.0042023724
0.608172 0.019160144 -0.0039687036
0.60899013 0.019810336 -0.0037992799
0.60981685 0.02036586 -0.003562391
0.61062253 0.021108355 -0.003462215
0.6114518 0.021665704 -0.0032240853
0.61226618 0.022313192 -0.003054963
0.61308372 0.022963312 -0.0028888001
0.61389911 0.023611423 -0.0027177974
0.61472785 0.024168279 -0.0024823281
0.61554646 0.02481916 -0.0023147052
0.61636358 0.025469011 -0.0021486222
0.6171782 0.026116453 -0.00197648
0.61799759 0.026767645 -0.0018082168
0.61882621 0.027325083 -0.0015760973
0.61964208 0.027973618 -0.0014048447
0.62045735 0.028621668 -0.0012361521
0.62127411 0.029271344 -0.0010692994
0.62209219 0.029921334 -0.00089922664
0.62291747 0.030475618 -0.00066231255
0.62374765 0.031034034 -0.00042915571
0.62455416 0.031776458 -0.00032466475
0.62538123 0.03233273 -9.1002323e-05
0.62619555 0.032979906 7.6256052e-05
0.6270383 0.033445545 0.00037313468
0.62793845 0.033447057 0.0010032916
0.62890506 0.032987516 0.0019577537
0.62993878 0.031976432 0.0033043004
0.63092434 0.031333644 0.0043898001
0.63181871 0.031429604 0.0049529346
0.63266891 0.031800419 0.0053182878
0.63350004 0.032360513 0.0055529578
0.6342656 0.033378474 0.0054642223
0.63508284 0.034028526 0.005632665
0.63588041 0.034773123 0.0057350807
0.63650692 0.036893032 0.0048524523
0.64386785 0.042643435 0.0064379731
0.64474541 0.042830985 0.0069344211
0.64561343 0.043111261 0.0073678317
0.64650232 0.04320617 0.007928065
0.64739007 0.043301608 0.0084904293
0.64826947 0.04349165 0.0089903669
0.64910847 0.043954957 0.0092899129
0.64992762 0.044604331 0.0094591761
0.6507448 0.045254875 0.0096259788
0.65152311 0.046178844 0.0095961103
0.6523518 0.046735939 0.0098339999
0.65315646 0.047477886 0.0099362358
0.65395015 0.048313215 0.0099756652
0.65474111 0.049145833 0.010010763
0.65554553 0.049888324 0.010116069
0.6563127 0.050906435 0.010021265
0.6570558 0.0521097 0.0097970245
0.65778625 0.053404193 0.0095076794
0.65852571 0.05462629 0.0092643909
0.65926951 0.055958182 0.0089117484
0.65994495 0.057240695 0.0086377067
0.6606729 0.058761258 0.0081428709
0.66129714 0.060012374 0.0077199228
0.55651671 0.01536132 0.027474273
0.54680878 0.013527716 0.021945907
0.54771554 0.013595076 0.022543203
0.51880378 0.045775231 0.046186294
0.57619607 -0.0096986815 -0.0066380659
0.57702476 -0.0091413278 -0.0064062858
0.57784271 -0.0084915496 -0.0062352438
0.57868338 -0.0080274325 -0.0059347665
0.57953799 -0.0076541011 -0.0055689439
0.58037561 -0.0071908771 -0.005271147
0.58119345 -0.0065404433 -0.0050981743
0.58200955 -0.0058914409 -0.0049299523
0.58283806 -0.0053343424 -0.0046938621
0.58365226 -0.0046866941 -0.0045269402
0.58449453 -0.0042207562 -0.0042268429
0.58531231 -0.0035706568 -0.0040576309
0.58613968 -0.0030140216 -0.0038234412
0.58694565 -0.002271492 -0.0037192053
0.58777207 -0.0017157062 -0.0034838957
0.58859032 -0.0010648938 -0.0033166027
0.58940518 -0.00041663065 -0.0031470403
0.59022093 0.00023213681 -0.0029762376
0.591052 0.00079119473 -0.0027449178
0.59186721 0.001439329 -0.0025730853
0.59269458 0.0019960459 -0.0023375058
0.59349823 0.002737151 -0.0022329602
0.59431428 0.0033861571 -0.0020663077
0.59514511 0.0039449786 -0.0018323578
0.5959599 0.0045933235 -0.0016620551
0.59676492 0.0053375075 -0.0015606192
0.59750515 0.006537593 -0.0017843985
0.59773171 0.011621283 -0.004755538
0.59856176 0.012179302 -0.0045187781
0.59938037 0.012830544 -0.0043518152
0.60019571 0.013478741 -0.0041815825
0.60102427 0.014035754 -0.0039451933
0.60185248 0.0145927 -0.0037138334
0.60266864 0.01524126 -0.0035408512
0.60350853 0.015705852 -0.0032399748
0.60432398 0.01635444 -0.0030741922
0.6051411 0.01700435 -0.0029039395
0.6059705 0.017561954 -0.0026716797
0.60679853 0.018118497 -0.0024354502
0.60762948 0.018677639 -0.0021982305
0.60844463 0.0193258 -0.0020305179
0.6092611 0.019975098 -0.0018614552
0.61008942 0.020532295 -0.0016259456
0.61090684 0.021182379 -0.0014607927
0.61172175 0.021830497 -0.0012900605
0.61253703 0.022479113 -0.0011205978
0.61336559 0.023036068 -0.00088528835
0.61418474 0.023687307 -0.00071743526
0.61501187 0.024243403 -0.0004833648
0.61583972 0.024800114 -0.00024640933
0.61664397 0.02554171 -0.00014393762
0.61746019 0.026191052 2.5333022e-05
0.61827832 0.026841862 0.00019668994
0.61909205 0.0274891 0.00036424692
0.61990952 0.028139293 0.00053358503
0.62073869 0.028697066 0.00076547469
0.62155682 0.029347347 0.00093627255
0.62238532 0.029904773 0.0011699062
0.6232006 0.030553307 0.0013410947
0.62401521 0.031200895 0.0015112171
0.62484336 0.031757943 0.0017451067
0.62564892 0.032499909 0.0018460525
0.62651509 0.032779764 0.0022757328
0.62741661 0.032781538 0.002903244
0.62840039 0.032137953 0.0039892728
0.62941325 0.031309489 0.0052051768
0.63036782 0.030942162 0.0060940757
0.63124794 0.031130573 0.0065898029
0.63211215 0.031410284 0.0070244325
0.63295275 0.031875182 0.0073206294
0.63376832 0.032524113 0.0074931821
0.63443643 0.034281354 0.0068738917
0.63508075 0.036224108 0.0061271274
0.64584041 0.043557357 0.0091110952
0.64673263 0.043654591 0.0096769696
0.64759517 0.043934666 0.01010812
0.6484496 0.04430474 0.010470393
0.64931625 0.044584733 0.010900393
0.65018356 0.044866838 0.011331094
0.65099716 0.045514155 0.011500306
0.65180165 0.046256289 0.011604122
0.65260494 0.046997383 0.011711038
0.65341127 0.047741286 0.011811454
0.65421426 0.048482146 0.011916569
0.65501797 0.049224392 0.012021285
0.65579838 0.050151542 0.011993207
0.6565901 0.050988123 0.012034026
0.65731978 0.052281953 0.011744861
0.65809697 0.05356136 0.011452398
0.65879154 0.054784704 0.011229525
0.65948302 0.056212958 0.010840962
0.66021925 0.057822265 0.010273072
0.66088676 0.059193753 0.0099217733
0.66163665 0.060526248 0.0095718112
0.6623444 0.061876457 0.0092238849
0.5442068 0.012383675 0.015551592
0.52068353 0.043277983 0.036249265
0.54510397 0.012380904 0.016166681
0.54599798 0.012444342 0.016727775
0.54688489 0.012507336 0.017284069
0.57565808 -0.010195075 -0.0048897136
0.57647616 -0.0095449612 -0.0047200406
0.57733184 -0.0091712307 -0.0043492271
0.57816058 -0.0086139534 -0.0041164868
0.57898998 -0.0080566276 -0.0038798878
0.57982844 -0.0075928769 -0.0035825411
0.58064622 -0.006942363 -0.0034142185
0.58147204 -0.006386979 -0.0031797292
0.58227831 -0.0056437734 -0.0030721731
0.58311951 -0.0051784017 -0.0027717664
0.58394784 -0.0046209004 -0.002541407
0.58475143 -0.0038796351 -0.0024349813
0.58557993 -0.0033221771 -0.0021999115
0.58639514 -0.0026736795 -0.0020287191
0.58722353 -0.002116119 -0.0017938798
0.58804178 -0.001465111 -0.0016254267
0.58885556 -0.00081738969 -0.0014579544
0.58967322 -0.00016663293 -0.0012881715
0.59048796 0.00048150879 -0.0011176291
0.59131753 0.0010397284 -0.00088124932
0.59213418 0.0016896452 -0.00071296666
0.59294897 0.0023381263 -0.00054540613
0.59376675 0.0029884451 -0.00037271529
0.59459537 0.0035461825 -0.00014267373
0.59540844 0.0041930676 3.0217518e-05
0.59622496 0.0048431447 0.00019514521
0.59706748 0.0053097531 0.00049764093
0.5978598 0.0061446726 0.00053557183
0.59866029 0.0068837632 0.00063884014
0.59883446 0.012340354 -0.0025893331
0.5996663 0.012900081 -0.0023514733
0.60048151 0.01354886 -0.0021841207
0.60129803 0.014198655 -0.0020143481
0.60211462 0.014847789 -0.0018457654
0.60295337 0.015311696 -0.0015431191
0.60376877 0.015960589 -0.0013763965
0.60458553 0.016610483 -0.0012078139
0.6054132 0.017167071 -0.0009712443
0.60624325 0.017725507 -0.00073671457
0.60706115 0.018375941 -0.00056460168
0.60789007 0.018933415 -0.00033108809
0.60871691 0.019489639 -9.8244695e-05
0.60953349 0.020139551 7.0191993e-05
0.61034757 0.020787304 0.00024280715
0.61117584 0.021344308 0.0004779899
0.61199254 0.021994282 0.00064796861
0.61281025 0.022644877 0.0008176195
0.61363739 0.023201058 0.0010505149
0.61446804 0.023760542 0.0012853477
0.61527002 0.024500417 0.0013894623
0.61609977 0.025058337 0.0016219319
0.6169281 0.025616035 0.0018585615
0.61773175 0.026357502 0.0019626971
0.61854637 0.027005671 0.0021341697
0.61937553 0.02756357 0.0023671894
0.62019074 0.028212363 0.0025345918
0.62100929 0.028863795 0.0027061347
0.62182456 0.029512415 0.0028724773
0.62265331 0.030070193 0.0031100169
0.62345737 0.030811464 0.0032145127
0.62429863 0.031277258 0.0035112794
0.62511402 0.031925462 0.0036806918
0.62596399 0.03229611 0.0040462147
0.62689245 0.032113995 0.0048035495
0.62786788 0.03156196 0.0058226222
0.6288572 0.030917639 0.006905552
0.62978709 0.030734563 0.007666897
0.63068628 0.030736746 0.0082939472
0.63154483 0.031111557 0.0086606722
0.63238448 0.031576268 0.0089610377
0.63321334 0.032133065 0.0091926781
0.63405073 0.032596003 0.0094911046
0.64691168 0.044467773 0.011156646
0.64781439 0.044470269 0.011783837
0.64871716 0.04447341 0.012412228
0.64958352 0.044753671 0.012842928
0.65042388 0.045218032 0.013144435
0.65125221 0.045774952 0.013376244
0.65205544 0.046516847 0.013483659
0.6528616 0.047261078 0.013585776
0.65365154 0.048094068 0.013625894
0.65445584 0.048836365 0.01372621
0.65523535 0.049764007 0.013700033
0.65601265 0.050688788 0.013673354
0.65678161 0.051711123 0.013581379
0.65754819 0.052731462 0.013489604
0.65827638 0.054026522 0.013205239
0.65897441 0.05551216 0.012785778
0.65970129 0.056733675 0.012544508
0.66042268 0.058260277 0.012054252
0.66114986 0.059605766 0.011705289
0.66187602 0.060857397 0.01142522
0.66261005 0.062288351 0.011002461
0.55738485 0.015634136 0.027904171
0.55824542 0.015936714 0.028317975
0.50885361 0.043478053 0.044449985
0.51768446 0.043246605 0.043202762
0.55910891 0.016244704 0.028735574
0.57336408 -0.010967201 -0.0042079203
0.57426488 -0.010964977 -0.0035816797
0.57511914 -0.010592155 -0.0032148762
0.57596219 -0.010125997 -0.0029124394
0.5767898 -0.0095692389 -0.00267949
0.577618 -0.0090126563 -0.0024427902
0.57845676 -0.0085488334 -0.002142454
0.57928848 -0.0079892259 -0.0019086841
0.58010125 -0.0073422086 -0.001740332
0.58091718 -0.0066928226 -0.0015722894
0.58174884 -0.006133134 -0.0013343993
0.58256435 -0.0054844031 -0.0011646667
0.58339077 -0.0049286117 -0.00093249755
0.58421999 -0.004370545 -0.00069626787
0.58502251 -0.003629684 -0.00058868428
0.58585334 -0.003070876 -0.00035396341
0.58668178 -0.0025131791 -0.00012228178
0.58748329 -0.0017733807 -1.9840372e-05
0.58831322 -0.001215003 0.00021649039
0.5891301 -0.00056483084 0.00038550014
0.58994597 8.4135681e-05 0.00055818271
0.59077531 0.00064232026 0.00079253945
0.59158945 0.0012903281 0.00096148183
0.59240395 0.0019386562 0.0011321902
0.59323227 0.0024955815 0.0013677418
0.5940519 0.003147806 0.0015334248
0.59488004 0.0037046922 0.0017691643
0.59570807 0.0042615784 0.0020042739
0.59653544 0.0048181536 0.0022379232
0.59735268 0.0054683182 0.0024079659
0.5981819 0.0060264654 0.0026442457
0.5989964 0.0066747935 0.0028134983
0.59980994 0.007322392 0.0029810106
0.59993315 0.01314898 -0.00050508865
0.60077393 0.013613638 -0.00020494717
0.60158002 0.014357304 -0.00010072414
0.60239518 0.015006082 6.9738366e-05
0.60322249 0.015562376 0.00030683598
0.60405231 0.016120497 0.00053821155
0.60488063 0.016677698 0.00077393814
0.60569555 0.017326178 0.00094648759
0.60652465 0.017884048 0.0011820053
0.60734266 0.01853502 0.0013496241
0.6081568 0.019182973 0.0015184764
0.60898769 0.019741636 0.0017562864
0.60981607 0.020299198 0.0019870861
0.61063033 0.020946905 0.0021604483
0.61145711 0.021503208 0.0023915176
0.61227471 0.02215397 0.0025626007
0.61309248 0.022804428 0.0027351135
0.61392051 0.023361614 0.002967003
0.61473393 0.024009094 0.0031366153
0.61555338 0.024661286 0.0033091384
0.61636674 0.025308572 0.0034762307
0.61719745 0.025867617 0.0037130006
0.61801261 0.026516553 0.0038800829
0.61882895 0.027166229 0.0040497356
0.61964285 0.027814094 0.0042174775
0.6204713 0.028371327 0.0044519873
0.62129009 0.029022632 0.0046218205
0.62211841 0.029580107 0.0048589697
0.62293494 0.030229911 0.0050290227
0.62375045 0.030878769 0.0051967651
0.62457824 0.031434722 0.005433945
0.62543029 0.031805772 0.0057976786
0.62635648 0.031622559 0.0065576332
0.62732095 0.031163136 0.007509578
0.62828559 0.03070428 0.0084585147
0.62922448 0.030429181 0.0092849554
0.63011378 0.030523876 0.0098450501
0.63098025 0.030803515 0.01027767
0.63183379 0.031175777 0.010640504
0.63265198 0.031826757 0.010811517
0.63344723 0.032659583 0.010850436
0.63435692 0.032570235 0.011539223
0.64719176 0.044627655 0.013080781
0.64808238 0.044722073 0.013640075
0.6489746 0.04481731 0.01420377
0.64985216 0.04500572 0.014698567
0.65068144 0.045563988 0.014932777
0.6514973 0.046214234 0.015104289
0.65229899 0.046953946 0.015205705
0.65310353 0.04769792 0.01531242
0.65389311 0.048530616 0.015352439
0.65466207 0.049552299 0.015256564
0.65542656 0.050569825 0.015169289
0.65619445 0.051590104 0.015074414
0.65696114 0.052609995 0.014984039
0.6577273 0.053629257 0.014891364
0.65845674 0.054925345 0.014603298
0.659199 0.056130599 0.014382629
0.6599043 0.057438537 0.014094162
0.66065878 0.058769368 0.013746601
0.66140932 0.060101278 0.013396938
0.66212827 0.061353751 0.013117169
0.66289753 0.062675893 0.012768408
0.66357392 0.06422323 0.012276448
0.54778093 0.012619296 0.017835964
0.50317562 0.084337898 -0.046501078
0.51326209 0.04447655 0.046805374
0.55953276 0.017784398 0.031638794
0.57283241 -0.011458648 -0.0024697173
0.57371098 -0.011271611 -0.00197174
0.57459068 -0.011082252 -0.0014783023
0.57541996 -0.010524908 -0.0012434026
0.57626015 -0.01005994 -0.00094019622
0.57707745 -0.0094099175 -0.00077138341
0.57790482 -0.0088534206 -0.00053701503
0.57873034 -0.0082981382 -0.00030221284
0.579561 -0.0077391542 -6.7997957e-05
0.58037764 -0.0070890165 0.00010459576
0.5811941 -0.0064395829 0.00027367254
0.58202153 -0.0058830841 0.00050758885
0.58285034 -0.005325173 0.00074310653
0.58366317 -0.0046778824 0.00091359875
0.58447987 -0.0040281052 0.0010828695
0.58529764 -0.0033774492 0.0012502633
0.58612376 -0.0028217565 0.0014847666
0.58694065 -0.0021716664 0.0016540493
0.58777159 -0.0016126647 0.0018931592
0.5885973 -0.0010573221 0.0021280684
0.58942723 -0.00049886783 0.0023622382
0.59022927 0.00024156342 0.0024645939
0.59105688 0.00079823926 0.0026989833
0.59188527 0.0013552968 0.0029358326
0.59269136 0.0020986667 0.0030411186
0.59353375 0.0025648021 0.0033408955
0.59436178 0.0031221858 0.0035743949
0.59517646 0.003770771 0.0037425274
0.5959906 0.0044187806 0.0039139995
0.59681922 0.0049761585 0.0041483794
0.59763521 0.0056256824 0.0043198718
0.59845221 0.0062761093 0.0044881245
0.59926921 0.006926043 0.0046585975
0.60009617 0.0074825217 0.0048923669
0.60091054 0.0081308726 0.0050612595
0.60172683 0.0087804087 0.0052343719
0.60187286 0.01442216 0.0018787804
0.60270369 0.014981262 0.0021161702
0.6035068 0.015722174 0.002222016
0.60433745 0.016280942 0.0024563558
0.60516298 0.016836306 0.0026909651
0.60598058 0.017487204 0.002861168
0.60679626 0.01813619 0.0030310105
0.60762471 0.018693812 0.0032651101
0.60844028 0.019342685 0.0034338126
0.60927039 0.019901035 0.0036710524
0.61009616 0.020456495 0.0039023818
0.6109246 0.021013975 0.0041389111
0.61172926 0.021756209 0.0042444868
0.61255622 0.02231257 0.0044786362
0.61337483 0.022964172 0.0046472792
0.61419094 0.023613375 0.0048206318
0.61501616 0.024168646 0.0050551007
0.61583483 0.024820166 0.0052253241
0.61664981 0.025468487 0.0053944262
0.61747932 0.02602715 0.0056296559
0.61829549 0.026676711 0.0057981592
0.61910933 0.027324267 0.0059679914
0.6199367 0.027880747 0.0062043704
0.62074077 0.028623104 0.0063067563
0.62157202 0.029182682 0.0065411367
0.62238747 0.029831354 0.0067132991
0.62321436 0.030387606 0.006944119
0.62404215 0.030944167 0.0071805678
0.62488401 0.031408288 0.0074794441
0.62579715 0.031317517 0.0081738718
0.62674898 0.030950729 0.0090594916
0.62769949 0.030583994 0.0099489093
0.6286307 0.030401103 0.010706445
0.62953502 0.030404054 0.011330036
0.63041234 0.030591719 0.011825133
0.63126391 0.030963317 0.012193536
0.63211972 0.031337194 0.01255854
0.63295829 0.03180097 0.012858147
0.63376349 0.032542147 0.012960963
0.63465112 0.032636914 0.013520957
0.64655644 0.04487627 0.014306029
0.647484 0.044693258 0.015066814
0.64840227 0.044603359 0.015758103
0.6493156 0.044515047 0.016448291
0.65014338 0.045072254 0.016682399
0.65093386 0.045905817 0.016722018
0.65173852 0.046649631 0.016829733
0.652542 0.047392283 0.01693275
0.65330887 0.04841071 0.016839676
0.65411186 0.049152564 0.016942991
0.6548664 0.050266739 0.016791118
0.65563303 0.051285576 0.016698344
0.65639818 0.052303851 0.016608469
0.65716493 0.053322889 0.016515594
0.65791887 0.054434951 0.01635932
0.65866226 0.055641748 0.016138053
0.6594277 0.05666076 0.016045978
0.66014427 0.058048595 0.015693815
0.66088003 0.059375253 0.01536585
0.66162866 0.060615879 0.015086084
0.66236544 0.061952177 0.014740621
0.66309851 0.063476704 0.014252466
0.66381198 0.064917155 0.013828905
0.55995679 0.016656183 0.02906248
0.54868346 0.012752691 0.01838636
0.55380905 0.020597499 0.036656044
0.51498818 0.046915606 0.048438162
0.57235688 -0.011435939 -0.00068451406
0.57317716 -0.011734221 -0.00026086729
0.57403064 -0.011362156 0.00010728714
0.57488686 -0.010987846 0.00046981697
0.57571548 -0.010442652 0.00071681599
0.57654715 -0.0098952856 0.00096145342
0.57737607 -0.0093436092 0.0011976868
0.57818943 -0.0086961072 0.0013686321
0.57902026 -0.0081370026 0.001601672
0.57983392 -0.0074891238 0.0017722942
0.58065212 -0.0068380362 0.0019458771
0.58147842 -0.0062822239 0.0021765265
0.58229518 -0.0056320312 0.0023487392
0.58311063 -0.0049827984 0.0025175917
0.5839259 -0.0043338854 0.0026879343
0.58475316 -0.0037775035 0.0029205836
0.58558238 -0.0032195165 0.0031599835
0.58639914 -0.0025695479 0.0033301662
0.58721548 -0.0019197296 0.0034958788
0.58804297 -0.0013631175 0.0037341684
0.58887285 -0.00080521614 0.003969538
0.58971429 -0.00033909013 0.0042705443
0.59052926 0.00030986755 0.0044408673
0.59133375 0.0010513623 0.0045427326
