# .PCD v0.7 - Point Cloud Data file format
VERSION 0.7
FIELDS x y z
SIZE 4 4 4
TYPE F F F
COUNT 1 1 1
WIDTH 1289
HEIGHT 1
VIEWPOINT 0 0 0 1 0 0 0
POINTS 1289
DATA ascii
-0.052150726 0.047792614 0.012509994
-0.053175807 0.04790923 0.013434656
-0.054324329 0.048039109 0.014356039
-0.055351555 0.048156261 0.015283242
-0.056137919 0.048253298 0.016228542
-0.057288289 0.048380882 0.017149962
-0.058077514 0.048477322 0.018095769
-0.059224665 0.048604757 0.019013308
-0.059904456 0.048710853 0.01996056
-0.060443401 0.048763365 0.020932116
-0.061140597 0.048877627 0.021871649
-0.061566949 0.048935354 0.022848591
-0.06188643 0.048990816 0.023830391
-0.062063932 0.049026281 0.024822809
-0.062008381 0.04903844 0.025831476
-0.061960161 0.049060076 0.026838988
-0.061802387 0.049077094 0.027859129
-0.061754048 0.049094468 0.028881602
-0.090415865 0.13468975 0.0032482445
-0.067886114 0.15819234 -0.043032631
-0.07300505 0.15887463 -0.020325635
-0.047129035 0.16923344 -0.011839349
-0.090608776 0.13472503 0.0042375065
-0.068584323 0.16770777 -0.051442519
-0.060572565 0.16737494 -0.067900747
-0.090906739 0.13475326 0.0052176565
-0.088133156 0.14333412 0.016183026
-0.08836782 0.14315659 0.010148697
-0.068698198 0.15966937 -0.040123537
-0.091087431 0.13478473 0.0062085576
-0.091058731 0.13482213 0.0072106272
-0.0093041062 0.12506911 -0.017591815
-0.091102928 0.13483894 0.0082116574
-0.009567976 0.18485616 -0.036683992
-0.091832548 0.12842616 0.023394234
-0.088961929 0.1195229 -0.003212247
-0.031369627 0.046218961 -0.034157723
-0.032459557 0.046347976 -0.033240065
-0.033077955 0.046453863 -0.032301892
-0.033706844 0.046473742 -0.031295359
-0.034677744 0.046598375 -0.030375959
-0.036316931 0.046804398 -0.029527759
-0.03684783 0.046839923 -0.028528346
-0.037182868 0.046902716 -0.027554527
-0.03761971 0.046954066 -0.026576754
-0.037713408 0.047007918 -0.025589494
-0.038029671 0.047054201 -0.024609156
-0.038455904 0.047096163 -0.023631314
-0.03902483 0.047168046 -0.02266892
-0.03934586 0.047218204 -0.021692114
-0.039758682 0.047255516 -0.020695593
-0.040369272 0.047276855 -0.019682802
-0.027903676 0.11753485 -0.025012622
-0.058012366 0.098522395 -0.028451029
-0.027719319 0.099132657 -0.031416133
0.042072296 0.10953632 -0.0042668469
-0.085763454 0.10737494 0.0013834685
-0.08234781 0.10422358 -0.010317143
-0.053492486 0.048617542 -0.013813529
-0.054980457 0.04883793 -0.012773544
-0.055679321 0.048978627 -0.011856876
-0.056801975 0.049055517 -0.010909311
-0.057703495 0.049144894 -0.0099652596
-0.05869782 0.04919076 -0.0090097822
-0.059380651 0.049303442 -0.0080661103
-0.06018281 0.049427032 -0.0071349628
-0.060831964 0.04947111 -0.0061766356
-0.061385095 0.049556702 -0.0052221343
-0.061702251 0.049629509 -0.0042544454
-0.061679006 0.049703687 -0.0032488517
-0.06105727 0.049732 -0.0021867603
-0.060537994 0.049739361 -0.0011291504
-0.059644818 0.04967612 -5.9187412e-05
-0.090990216 0.13489035 0.0092259236
-0.088551044 0.14352602 0.023158215
-0.090934634 0.13491508 0.010232978
-0.089648575 0.15140074 0.01081083
-0.089729309 0.15138108 0.00981424
-0.090879053 0.13493881 0.011237741
-0.051960528 0.049097419 0.0074949637
-0.051075637 0.049039483 0.0085584372
-0.050308943 0.048995942 0.0096042305
-0.050102532 0.04896313 0.010609411
-0.05029273 0.049002409 0.011596553
-0.050719202 0.049067765 0.012567379
-0.05151099 0.049158663 0.01351326
-0.052416563 0.049265623 0.014448844
-0.053563237 0.04939419 0.015369289
-0.054352701 0.049489141 0.016315728
-0.055141091 0.049583316 0.017259851
-0.055811405 0.049668014 0.018216006
-0.057078183 0.049806416 0.019126475
-0.057985365 0.049911916 0.020061791
-0.058535159 0.049985647 0.021026269
-0.059203625 0.050069988 0.021981455
-0.059752703 0.050143361 0.022944488
-0.060421944 0.050225765 0.023895659
-0.060727596 0.050278932 0.02487576
-0.060716033 0.050340563 0.025882266
-0.06064409 0.050337166 0.02689144
-0.060692847 0.050343424 0.0278854
-0.060555816 0.050385565 0.02890829
-0.09073633 0.13497239 0.01225052
-0.044057548 0.17210582 -0.011736069
-0.068448663 0.16369802 -0.046245191
-0.073490441 0.16919307 -0.048759002
-0.064431876 0.17585802 -0.065420657
-0.036104798 0.17777039 -0.017334439
-0.088681579 0.14349452 0.022147141
-0.09058553 0.13500518 0.013267778
-0.073032916 0.16119924 -0.034457669
-0.066811204 0.15944353 -0.048006773
-0.090401024 0.13502598 0.014274843
-0.090229183 0.13505164 0.015283212
-0.090091676 0.13508639 0.01630111
-0.03587085 0.12916699 -0.015837081
-0.050316811 0.16638055 -0.010968991
-0.02795738 0.041781247 -0.036774509
-0.072577864 0.151842 -0.022102945
-0.092049181 0.12853447 0.027375035
-0.092126101 0.12851378 0.026376933
-0.087838292 0.11943626 -0.0051509403
-0.087317914 0.11939821 -0.0061169378
-0.03203541 0.047758013 -0.032249928
-0.032645285 0.047874629 -0.031328663
-0.033272624 0.0479379 -0.030419439
-0.035114765 0.048054487 -0.029430607
-0.035742879 0.048183441 -0.028507715
-0.036052704 0.048218638 -0.027516523
-0.036493897 0.048272699 -0.026541229
-0.036814868 0.04832536 -0.025559667
-0.037015617 0.048354894 -0.024568701
-0.037445605 0.048413724 -0.023597557
-0.038038015 0.048509926 -0.022647109
-0.038361907 0.048558652 -0.021663252
-0.038795292 0.048610181 -0.02069176
-0.039328575 0.048652351 -0.019702099
0.0095390677 0.12555748 -0.018902749
0.017432153 0.11781022 -0.021901162
-0.069326758 0.16238752 -0.04226166
0.0067894459 0.12050694 -0.023704251
-0.032561719 0.048150986 -0.031164721
-0.05047524 0.049846739 -0.014584683
-0.0516451 0.049999505 -0.01368447
-0.052988768 0.050101608 -0.012708373
-0.053803563 0.050231248 -0.011785686
-0.054573536 0.050304264 -0.010820627
-0.055216789 0.050357014 -0.0098445937
-0.0558815 0.050437152 -0.0088897645
-0.056676686 0.050533205 -0.0079481117
-0.057327211 0.050587922 -0.0069829486
-0.05821228 0.050626695 -0.0060321428
-0.058308184 0.050724924 -0.0050536543
-0.058616936 0.050773472 -0.0040769055
-0.058348775 0.050832897 -0.0030483417
-0.057828784 0.050843358 -0.0019918419
-0.089920908 0.13511115 0.017311938
-0.089852035 0.13512993 0.018314935
-0.067615062 0.15006286 -0.034747086
-0.067924321 0.15009397 -0.033767391
-0.068350554 0.15012097 -0.032793194
-0.068658084 0.1501511 -0.031814367
-0.068833977 0.15019369 -0.030819191
-0.089736521 0.1351763 0.019328214
-0.089674652 0.13519907 0.020333044
-0.049392045 0.05026415 0.0086195953
-0.048875153 0.050250828 0.0096592605
-0.048917949 0.050260037 0.010653757
-0.049346149 0.050324142 0.011625297
-0.049773633 0.050385952 0.012593634
-0.050322354 0.050457507 0.013555937
-0.050871372 0.050528944 0.014518119
-0.051542461 0.050612301 0.015475154
-0.05256784 0.050728798 0.016402997
-0.053114831 0.050802857 0.017365858
-0.053784192 0.050886273 0.018320702
-0.054690897 0.050991297 0.019256659
-0.055721462 0.051105618 0.020185702
-0.056268573 0.051180005 0.021149956
-0.057057261 0.051273078 0.022093788
-0.057488382 0.051333427 0.023062512
-0.058035254 0.05140689 0.024025194
-0.058344305 0.051458716 0.025007002
-0.058889985 0.051531941 0.025967956
-0.058838606 0.051551014 0.026972853
-0.05895263 0.05164519 0.027983077
-0.089630932 0.13522875 0.021339558
-0.064261764 0.16197148 -0.057940397
-0.067410558 0.17040859 -0.056442507
-0.069213778 0.17455383 -0.059654105
-0.073703319 0.16921306 -0.047775257
-0.065331459 0.17586762 -0.06447044
-0.036314785 0.17780393 -0.016370427
-0.060226321 0.16449974 -0.068816632
-0.04882139 0.16783556 -0.0099169388
-0.065461636 0.15927356 -0.053929556
-0.053708792 0.16362803 -0.0071134306
-0.089673996 0.13525045 0.022337131
-0.089659125 0.13528979 0.023339801
-0.061519623 0.16600581 -0.065910116
-0.050469458 0.1664532 -0.0089838728
-0.050412357 0.16643567 -0.009978991
-0.03852123 0.11848006 -0.02478609
-0.080131531 0.13960758 -0.013112199
-0.073026568 0.17052785 -0.051761121
-0.086701751 0.11934459 -0.0070930868
-0.078157097 0.11351559 -0.012228962
-0.082494855 0.10699058 -0.0083968528
-0.033318758 0.049256742 -0.029313067
-0.034311593 0.049417794 -0.028409829
-0.034654856 0.049499571 -0.027450182
-0.035199285 0.049524069 -0.02647399
-0.035539925 0.049605787 -0.025502531
-0.03586185 0.049660683 -0.024523698
-0.03628546 0.049684078 -0.023540311
-0.036832273 0.049722552 -0.022559617
-0.037121654 0.049893469 -0.021633621
-0.037766397 0.049901992 -0.020637028
-0.038015127 0.050004512 -0.019702818
-0.03856802 0.050133258 -0.018773492
-0.032804847 0.10046357 -0.030682195
-0.088079602 0.15409735 0.0098544583
0.018396258 0.1176739 -0.021665823
-0.032850742 0.1278075 -0.016132295
-0.049554884 0.051162332 -0.014593732
-0.050806999 0.051293075 -0.013638593
-0.051722109 0.051405162 -0.012699585
-0.05252552 0.051508367 -0.011749774
-0.053192854 0.051594496 -0.010783955
-0.05371964 0.051649213 -0.0098025016
-0.054147482 0.051712215 -0.0088268258
-0.054571569 0.051773429 -0.0078536086
-0.054894507 0.051829338 -0.006885536
-0.055054188 0.051859766 -0.005871743
-0.055344641 0.051891595 -0.004885599
-0.055321872 0.051939666 -0.0038747527
-0.055208981 0.052031636 -0.0028264672
-0.054966211 0.052052706 -0.0017795675
-0.08978498 0.13530561 0.02432967
-0.089760482 0.13533807 0.025333479
-0.089779973 0.13535476 0.026323386
-0.051764727 0.061637491 0.01131203
-0.07237792 0.15902796 -0.014983278
-0.073210627 0.15860581 -0.028369613
-0.089607239 0.14873418 0.012922905
-0.073296964 0.15752229 -0.01831533
-0.08379671 0.15495107 -0.0038067661
-0.048258066 0.051587701 0.0086730197
-0.047936678 0.051565081 0.0096790045
-0.048257172 0.051615745 0.010637082
-0.048683465 0.051678568 0.011614896
-0.049217284 0.051745057 0.012580268
-0.049647272 0.051810026 0.013548054
-0.050172091 0.051873028 0.014523447
-0.050606251 0.051936775 0.015495583
-0.051055431 0.05200997 0.016453214
-0.051570415 0.052064985 0.017433204
-0.052118659 0.052138776 0.018397689
-0.052667141 0.052210093 0.019359902
-0.053334713 0.052292615 0.020312287
-0.054005265 0.052374661 0.02126769
-0.05442971 0.052437931 0.022238813
-0.054982841 0.052509099 0.023203619
-0.05553031 0.052581191 0.024165191
-0.055720448 0.052621007 0.025150932
-0.05602926 0.052672178 0.026130863
-0.055618346 0.052659452 0.027162462
-0.067654848 0.14857858 -0.030743584
-0.082447827 0.14391407 -0.0094992593
-0.036836863 0.17477663 -0.020192876
-0.083954543 0.13979 -0.009479396
-0.073767483 0.16924262 -0.046776932
-0.067064017 0.17583464 -0.06263788
-0.066246748 0.17586447 -0.063544348
-0.067999601 0.16771793 -0.052380063
0.052126765 0.067474216 -0.0044719502
-0.062974632 0.15899763 -0.062806547
0.052105904 0.069802523 -0.0027998909
-0.053052247 0.16346373 -0.010041691
-0.068993598 0.15969864 -0.039142337
-0.064819127 0.16619597 -0.058118224
-0.012843072 0.12446409 -0.017121427
0.033545077 0.095176369 -0.024013491
-0.07351315 0.16132033 -0.030477218
-0.0087180138 0.11801657 -0.024111759
-0.084613025 0.1398167 -0.0085228346
-0.026104271 0.18360335 -0.021827329
-0.085821897 0.11931235 -0.0080244094
-0.079037309 0.11359328 -0.011364181
-0.030065536 0.050401449 -0.029142518
-0.030786574 0.050531656 -0.028207649
-0.031302035 0.050672799 -0.027309431
-0.032049775 0.050636679 -0.026284384
-0.032732785 0.0506787 -0.025323946
-0.033533335 0.050708622 -0.024365155
-0.033996105 0.050822079 -0.023396218
-0.066706747 0.15233016 -0.050663717
-0.076308578 0.15613964 -0.010347907
-0.072710007 0.1505065 -0.020070154
-0.036671937 0.051180154 -0.019511536
-0.038048029 0.051391572 -0.018656563
-0.090129524 0.11845434 0.0047573149
-0.0088885427 0.11079657 -0.028415134
-0.0026972294 0.09861663 -0.039113641
0.019325912 0.11748728 -0.02135032
0.024573028 0.096648008 -0.028451653
-0.05022347 0.052630574 -0.013641447
-0.051118135 0.052730322 -0.0126778
-0.051896632 0.052818447 -0.01171647
-0.052596867 0.052915514 -0.010778371
-0.053048611 0.052981049 -0.0098087676
-0.053584576 0.05305317 -0.0088362917
-0.05389595 0.05310753 -0.007857617
-0.054202318 0.053159714 -0.0068697557
-0.054385066 0.053205729 -0.0058640055
-0.054436266 0.053225636 -0.0048551671
-0.054445207 0.053279191 -0.0038370043
-0.054377317 0.053285748 -0.002820354
-0.054108024 0.053290695 -0.0017762519
-0.080003113 0.15082368 -0.009522289
-0.088083476 0.14838868 0.00099188462
-0.088669896 0.14840642 0.0019657314
-0.089110494 0.14842695 0.0029258467
-0.089418232 0.14845711 0.0039067715
-0.089697361 0.1484836 0.0048913807
-0.089691371 0.14851788 0.0058940537
-0.091557354 0.13352132 0.0092271529
-0.0480299 0.052922547 0.0076308772
-0.047554016 0.052916497 0.0086743385
-0.047587514 0.052934051 0.0096633583
-0.047882378 0.052980781 0.010639064
-0.048225999 0.053037167 0.011602111
-0.048771024 0.053118736 0.012553789
-0.049313724 0.0531829 0.013525806
-0.049739718 0.05324018 0.014504492
-0.050167263 0.05330503 0.015474856
-0.05057776 0.053362221 0.016453609
-0.050872803 0.053412527 0.017440028
-0.051064312 0.053452402 0.018427178
-0.051468015 0.053500563 0.019405015
-0.051557183 0.053545266 0.020398229
-0.051848769 0.053582847 0.021382101
-0.052039564 0.053621024 0.022369333
-0.051980913 0.053634316 0.023372971
-0.052062273 0.053678334 0.024370752
-0.051892936 0.053685069 0.025385328
-0.051359892 0.053663075 0.026428334
-0.050830722 0.053640962 0.027464546
-0.068554789 0.15146086 -0.03884355
-0.069913864 0.16372041 -0.043372005
-0.085056365 0.13985834 -0.0075606331
-0.068888366 0.17038633 -0.054584831
-0.071090072 0.17453539 -0.058787346
-0.073720276 0.16927631 -0.045770381
-0.072800159 0.16813347 -0.038640648
-0.0674555 0.16770019 -0.0533421
-0.063636124 0.1590735 -0.060806453
-0.063230693 0.15904614 -0.061788104
-0.065733016 0.15930033 -0.052937701
-0.067104578 0.15947291 -0.047022428
-0.067255646 0.16633819 -0.052272025
-0.015886307 0.12461731 -0.017529406
0.022748709 0.098277628 -0.028356962
0.023278236 0.10953408 -0.022360103
-0.07353875 0.16128787 -0.031483706
0.049691498 0.073978305 0.0007921122
0.032732964 0.10773614 -0.01960079
0.033615947 0.10745099 -0.019208595
-0.029766202 0.12425163 -0.018102683
-0.025000811 0.051312834 -0.030786796
-0.02608043 0.051441193 -0.029882051
-0.026697159 0.051631093 -0.028970189
-0.027391195 0.051694304 -0.028011842
-0.028095782 0.051786453 -0.027062859
-0.02866143 0.051833421 -0.026097724
-0.02946341 0.05184257 -0.025141818
-0.030044615 0.051907241 -0.024181506
-0.031192601 0.051825613 -0.023223097
-0.031070292 0.052042723 -0.022245931
-0.031737447 0.051987648 -0.021248922
-0.031752706 0.052363425 -0.02036681
0.02418977 0.10266745 -0.026910091
-0.036032557 0.052718669 -0.018655721
-0.086136431 0.13157818 -0.008378312
0.027571619 0.089912593 -0.029032957
-0.0064365268 0.11372629 -0.027385704
-0.015005827 0.11918825 -0.023829857
-0.048820376 0.053873301 -0.014561571
-0.049986303 0.054003805 -0.013651058
-0.050842404 0.054090291 -0.012660742
-0.051456571 0.054178208 -0.011743646
-0.052225113 0.054266363 -0.01078178
-0.052684486 0.054335713 -0.0098184012
-0.053121209 0.054394782 -0.0088430233
-0.053559303 0.054461151 -0.0078695565
-0.053758681 0.054508537 -0.0068749227
-0.054022491 0.054548591 -0.0058764704
-0.053990841 0.054572582 -0.0048647635
-0.053918719 0.054592222 -0.0038520768
-0.053800523 0.054613739 -0.0028169602
-0.053538024 0.054628164 -0.0017780326
-0.069293469 0.15403658 -0.041995727
-0.075537443 0.1561681 -0.011334687
-0.089877486 0.14713863 0.0059227571
-0.089908242 0.14710912 0.0049178451
-0.08972618 0.14707774 0.0039300397
-0.089419454 0.14704973 0.0029558092
-0.088869214 0.14702919 0.0019996837
-0.064517528 0.16058692 -0.05690407
-0.047541082 0.054293782 0.0076590553
-0.047320485 0.054293156 0.0086453855
-0.047485769 0.054327995 0.0096247345
-0.047781587 0.054375619 0.010600246
-0.048128784 0.05442968 0.011565812
-0.048661292 0.054499805 0.01252827
-0.049107254 0.054561973 0.013491802
-0.049525261 0.054626107 0.014471881
-0.049842119 0.054680347 0.015451483
-0.050231934 0.054734707 0.016437449
-0.050424516 0.05477792 0.017427646
-0.05059731 0.054812133 0.018422134
-0.050669253 0.054845452 0.019417532
-0.050729215 0.05487299 0.020416394
-0.050689399 0.054900438 0.021423288
-0.050671101 0.054937392 0.022436075
-0.050584972 0.054936975 0.023438044
-0.073700041 0.15195763 -0.0181759
-0.072259009 0.15181491 -0.023083983
-0.072051525 0.15179092 -0.024066698
-0.079102516 0.1438092 -0.012242373
-0.077240258 0.14372161 -0.015132166
-0.073542953 0.16930816 -0.044759177
-0.037823319 0.17481698 -0.019305781
-0.073703229 0.17050122 -0.049856018
-0.090643734 0.13244963 0.020346738
-0.046940982 0.16920836 -0.01281783
-0.073051751 0.16807558 -0.039668694
-0.066917688 0.16768128 -0.054307651
0.03595227 0.10486439 -0.01819665
-0.04875052 0.16779722 -0.010907434
-0.064904094 0.12424254 -0.019987121
-0.073706597 0.16659632 -0.041677743
-0.073638469 0.16656779 -0.042675123
-0.079626918 0.11364177 -0.010438804
-0.03183496 0.10191402 -0.030546103
-0.01978606 0.12666959 -0.013943888
0.027545154 0.11767387 -0.016806051
0.010837793 0.12986156 -0.013407111
-0.027332664 0.11206412 -0.027137822
0.037720382 0.10543919 -0.01663097
0.038484633 0.10498807 -0.016038179
-0.07443592 0.072412759 0.0034558065
-0.023113668 0.052877724 -0.029923236
-0.023948193 0.052955091 -0.028926339
-0.024783313 0.052818626 -0.027948804
-0.025350571 0.053020209 -0.026924305
-0.026411355 0.053104192 -0.025985882
-0.026984096 0.053177148 -0.025026584
-0.02680099 0.053187191 -0.024011139
-0.027378261 0.053257346 -0.023047369
-0.028078079 0.053338587 -0.022097083
-0.028526485 0.053399444 -0.021126769
-0.029229581 0.053480566 -0.020173807
-0.030017495 0.053492546 -0.019188214
0.030719936 0.10444146 -0.022238055
0.0047932267 0.12694579 -0.016668089
0.048712373 0.074127853 0.00056540966
0.037496269 0.11430606 -0.010118555
-0.0051564574 0.11390167 -0.027705051
-0.048606575 0.055235237 -0.014581032
-0.049834192 0.055358738 -0.013635099
-0.050635338 0.055458695 -0.0127028
-0.051342905 0.055562377 -0.011767872
-0.05190587 0.055636734 -0.010810934
-0.052449405 0.05570823 -0.0098408312
-0.052981794 0.055777401 -0.0088641569
-0.053235114 0.055827081 -0.0078916214
-0.053538561 0.055877626 -0.0068941191
-0.053689957 0.055914164 -0.0058926828
-0.05363977 0.055935919 -0.0048805997
-0.053480923 0.055948436 -0.0038543679
-0.053345263 0.055967629 -0.0028280616
-0.05317086 0.055984557 -0.0018048584
-0.052901328 0.055992365 -0.00076829642
0.036207199 0.10993052 -0.01559706
-0.041870534 0.11700195 -0.025484234
-0.070064157 0.072376221 0.017628156
-0.067999542 0.1462386 -0.021642186
-0.0687989 0.1461345 -0.020752121
-0.069702476 0.14630398 -0.019766569
-0.031827509 0.12661213 -0.01677699
-0.071573138 0.15172911 -0.026041331
-0.047175765 0.055680215 0.0086079016
-0.047479451 0.055729389 0.0095824152
-0.047717333 0.055768967 0.01055453
-0.04812938 0.055826277 0.011524849
-0.048559546 0.055889696 0.012495868
-0.04899621 0.055953264 0.013462417
-0.049413264 0.056013852 0.014442831
-0.049726427 0.056066453 0.01542303
-0.05002135 0.056118906 0.016408615
-0.050197303 0.056157172 0.017404191
-0.050269544 0.056187361 0.018403053
-0.050316036 0.056217849 0.019403882
-0.050266206 0.056237578 0.020407751
-0.050218165 0.056255341 0.021416955
-0.05006367 0.056271464 0.022436492
-0.015028417 0.098323643 -0.03778971
0.0026674867 0.1016328 -0.033746857
0.032581568 0.11778596 -0.012412272
0.0033231974 0.12965038 -0.013659425
-0.077825695 0.14375925 -0.014203247
-0.070958555 0.16246507 -0.03936749
-0.068236381 0.16233408 -0.045177314
-0.06792742 0.16230483 -0.046162095
-0.056010365 0.17438133 -0.073351964
-0.080648065 0.11434817 0.017644212
-0.054408371 0.11582571 -0.025706306
-0.068206519 0.17582551 -0.061720181
-0.080960512 0.13543195 -0.014047936
-0.067755133 0.16907148 -0.054407589
-0.060153902 0.17018391 -0.068951458
-0.066106349 0.16902433 -0.057290595
-0.030313015 0.1806488 -0.021012247
-0.065774143 0.15334377 -0.054735139
0.030928969 0.11626846 -0.014945336
0.016520381 0.10940218 -0.024798695
-0.02839309 0.11205065 -0.027213313
-0.029283583 0.11232141 -0.027577601
-0.026185215 0.11222324 -0.027225016
0.028727591 0.12293378 -0.01029662
-0.021943212 0.054059952 -0.030760223
-0.022792161 0.054158092 -0.029827211
-0.023517847 0.054257423 -0.028889198
-0.023953795 0.054315895 -0.0278992
-0.02446121 0.054356068 -0.026889551
-0.024530649 0.054382473 -0.025895825
-0.024978518 0.054442018 -0.024926737
-0.025554061 0.054511487 -0.02396364
-0.025749981 0.054554194 -0.022973262
-0.026205063 0.054616958 -0.02200947
-0.026523173 0.054667532 -0.021027662
-0.026863635 0.054723531 -0.020056754
-0.027431905 0.054796606 -0.019154202
-0.086977899 0.13160634 -0.0074253157
0.013758779 0.12945396 -0.01273245
0.038660586 0.099964529 -0.016593017
-0.053687811 0.11997777 -0.023406122
-0.0040066838 0.11429387 -0.027831808
-0.048761249 0.05665797 -0.014676645
-0.04985404 0.056784153 -0.013686795
-0.05067116 0.056874931 -0.012761045
-0.051335156 0.056957245 -0.011797681
-0.051791906 0.057020009 -0.010840535
-0.052330911 0.057089746 -0.0098698363
-0.052785754 0.057154775 -0.0089034922
-0.053120255 0.057205915 -0.0079225264
-0.053316236 0.057251364 -0.006921567
-0.053396761 0.057276666 -0.0059097409
-0.053348243 0.057301968 -0.0048909001
-0.053193152 0.057313859 -0.0038620904
-0.053017318 0.057317853 -0.002843976
-0.052844763 0.057328761 -0.0018164515
-0.052621305 0.0573318 -0.00081203505
-0.05222106 0.057322621 0.00023455173
-0.068059146 0.14482284 -0.01976217
-0.081907868 0.13549358 -0.013159707
-0.089419186 0.14598483 0.013005801
-0.028536201 0.18062808 -0.022885429
-0.082706898 0.13554239 -0.012234028
-0.083853841 0.14545307 -0.0046107545
-0.067052245 0.15376368 -0.050869681
-0.047150493 0.057085603 0.0085639954
-0.047498882 0.057130635 0.0095312037
-0.047847211 0.057176977 0.010502502
-0.048261166 0.057237834 0.011473909
-0.048595071 0.057288587 0.012444295
-0.049006164 0.057352006 0.01342506
-0.049307942 0.057403505 0.014407776
-0.049707115 0.05746913 0.015389614
-0.049926996 0.057510287 0.01637686
-0.050083697 0.057549089 0.017373063
-0.050142229 0.057580113 0.018369235
-0.050099313 0.05760023 0.019377828
-0.050079584 0.057629645 0.0203906
-0.049983561 0.057640851 0.021391161
-0.049776614 0.057641149 0.022395872
-0.089024454 0.14980528 0.0028903261
-0.082465261 0.15091842 -0.0066721328
-0.074452221 0.15627441 -0.013344742
-0.073436111 0.16138864 -0.028461732
-0.064695537 0.15775996 -0.05784364
-0.064984113 0.15778744 -0.056855001
-0.06519109 0.15781838 -0.055874731
-0.067538172 0.1622673 -0.047143895
-0.041361868 0.12015635 -0.024800412
-0.033538282 0.17617671 -0.021986699
-0.034674823 0.17623705 -0.021131959
-0.070634663 0.17598724 -0.060711119
-0.062259138 0.17025952 -0.065107316
-0.068419784 0.16908297 -0.053456362
-0.062906027 0.17028156 -0.064140484
-0.066560447 0.16902968 -0.056335151
-0.031106651 0.18061528 -0.020060334
-0.065154701 0.1689752 -0.059234131
-0.023315609 0.18202882 -0.02654535
-0.063871264 0.18140139 -0.069444269
0.024946809 0.11860347 -0.018068686
0.026693583 0.11801964 -0.017261431
0.02790767 0.12333184 -0.01083323
-0.030211329 0.11252353 -0.027875101
0.048631787 0.07177794 -0.00099271908
-0.020561695 0.055284917 -0.032724712
-0.021502852 0.055395216 -0.031761989
-0.022217453 0.055479288 -0.030814106
-0.022906661 0.055562794 -0.029849105
-0.02361542 0.055644572 -0.02889956
-0.024029553 0.055702507 -0.027905133
-0.024351656 0.055752575 -0.026924284
-0.02454716 0.055793047 -0.025938341
-0.024869502 0.055843323 -0.024957817
-0.025191188 0.055895299 -0.0239799
-0.025512934 0.055942655 -0.022998966
-0.025708854 0.055983782 -0.022011461
-0.026062369 0.056040019 -0.021048583
-0.026657879 0.056113809 -0.02009891
-0.027204096 0.056182384 -0.019204445
-0.087724268 0.13163623 -0.0064722002
0.027318835 0.1257292 -0.0074358992
0.040190935 0.099013895 -0.015384261
-0.0496068 0.12792933 -0.017441101
-0.0098881721 0.11322594 -0.027078478
-0.049158871 0.058063447 -0.014755275
-0.050006509 0.058182418 -0.013750311
-0.050679505 0.058263689 -0.012787994
-0.051238179 0.058331847 -0.01183046
-0.05169791 0.058392704 -0.010876652
-0.052239537 0.058465004 -0.0099101737
-0.052694321 0.058525413 -0.0089410096
-0.053043127 0.0585756 -0.007962212
-0.053200364 0.058616012 -0.0069573484
-0.053285778 0.058644414 -0.0059462115
-0.053288221 0.05866155 -0.0049323067
-0.053189337 0.058683783 -0.0039085671
-0.053028226 0.058684856 -0.002890218
-0.052882016 0.058693945 -0.001855962
-0.052570164 0.058691978 -0.00082891062
-0.05222553 0.058695316 0.00018168241
-0.051597118 0.058664113 0.001252003
-0.05091548 0.058638394 0.0022913292
-0.085743904 0.096456587 -0.0022946186
-0.0855501 0.096420377 -0.0032784604
-0.091517329 0.13340911 0.0062208772
-0.064320415 0.16055773 -0.057890479
-0.079956502 0.11759955 -0.012664832
-0.04754436 0.058469921 0.0085040815
-0.047905445 0.058542162 0.009465728
-0.048123896 0.058570832 0.010440856
-0.048520923 0.058645636 0.011418603
-0.048817396 0.058699667 0.012402929
-0.049118102 0.058754802 0.013384536
-0.049433887 0.058807105 0.014365166
-0.049680829 0.058841705 0.015340969
-0.049872875 0.058887064 0.016338572
-0.050020635 0.058929324 0.017335407
-0.050058842 0.058959574 0.018335715
-0.050030947 0.058982104 0.019347124
-0.049959064 0.059002519 0.020356409
-0.04978174 0.059011549 0.021370277
-0.049570799 0.059019238 0.022372976
-0.087132484 0.096701115 0.0046126395
-0.08346349 0.15094352 -0.0057096444
-0.067489326 0.15244967 -0.04884034
-0.083607167 0.14401117 -0.0065774582
-0.087464899 0.15535271 0.0068285465
-0.087208241 0.15539935 0.0078451931
-0.067008078 0.15807831 -0.046978164
-0.067334086 0.16224317 -0.048130456
0.018431664 0.096429318 -0.032819495
-0.035754204 0.17625345 -0.020211533
-0.045950651 0.16916642 -0.014726501
-0.071769714 0.17583294 -0.059879679
-0.066485733 0.16766551 -0.055273302
0.037564158 0.10399947 -0.017103065
-0.048560679 0.1677871 -0.011888538
-0.072569638 0.16685294 -0.034577794
-0.073034257 0.16651431 -0.044639122
-0.073424011 0.16652036 -0.043676425
-0.022177041 0.18205589 -0.027506379
-0.062521815 0.18141842 -0.070394635
-0.085594505 0.13988414 -0.0065983236
-0.016440272 0.18495056 -0.031194586
0.015703321 0.12074137 -0.021222383
0.025830686 0.11832026 -0.017681796
-0.001283884 0.1238867 -0.019848991
-0.03118974 0.11262935 -0.028046606
0.0343436 0.094740689 -0.023465624
-0.019853294 0.056623787 -0.033692434
-0.020934761 0.056738466 -0.032757506
-0.021788895 0.056826234 -0.031832218
-0.022372484 0.056896091 -0.030871294
-0.022933602 0.056969434 -0.029894754
-0.023605943 0.057054669 -0.028925925
-0.024316251 0.057133287 -0.027977405
-0.024644732 0.057187974 -0.026997315
-0.02494204 0.05723694 -0.026008815
-0.025137842 0.057275444 -0.02502133
-0.025333881 0.057314366 -0.024030469
-0.025528133 0.057352006 -0.023046475
-0.025850475 0.057403475 -0.022066381
-0.026426136 0.05747214 -0.021103475
-0.026800752 0.057522982 -0.020148847
-0.051344752 0.11924949 -0.024517871
-0.088359505 0.13166606 -0.0055193864
0.04094559 0.098506272 -0.014751438
0.036032081 0.094020039 -0.022539934
-0.010938883 0.11320364 -0.027149068
-0.048458278 0.059383631 -0.015706971
-0.049509645 0.059488982 -0.014788769
-0.050299346 0.059581757 -0.013832454
-0.05085814 0.059642881 -0.012861073
-0.05129534 0.059712917 -0.011892989
-0.05173403 0.059776813 -0.010924276
-0.052256942 0.059711903 -0.0099626854
-0.052708328 0.05990386 -0.0089829937
-0.053066075 0.059961438 -0.0080319121
-0.053378403 0.060011774 -0.0070507862
-0.053403974 0.060028285 -0.0060014836
-0.05343318 0.060061961 -0.0049976967
-0.053427041 0.060067862 -0.0039833486
-0.053382099 0.060077369 -0.0029712468
-0.053214788 0.060090035 -0.0019437484
-0.052983403 0.060115039 -0.00093886256
-0.052538395 0.060111403 8.2250684e-05
-0.051955223 0.060116053 0.0011030994
-0.051283836 0.060071737 0.0021256916
-0.050692737 0.060042262 0.0032138191
-0.049922287 0.060003012 0.0042710006
-0.049271643 0.059973687 0.005319722
-0.048741102 0.059954196 0.0063597895
-0.083794922 0.13556901 -0.011264566
-0.084818542 0.13562182 -0.010347374
-0.085640937 0.13566762 -0.0094530061
-0.086395711 0.13569915 -0.0085118748
-0.086927027 0.13572887 -0.0075560808
-0.087344706 0.13575885 -0.0065892637
-0.087743968 0.13578913 -0.0056129582
-0.088162154 0.13581708 -0.0046437085
-0.08846572 0.13585126 -0.0036660321
-0.088766843 0.13588038 -0.0026872978
-0.089053214 0.13590774 -0.001705423
-0.050077975 0.060350358 0.018296108
-0.050107837 0.060386568 0.019290932
-0.049962521 0.060393691 0.020310357
-0.049765587 0.060405642 0.021318793
-0.089260608 0.13594484 -0.00071951747
-0.089603186 0.1359489 0.00026705861
-0.084567815 0.15096101 -0.0047375448
-0.085700363 0.15099195 -0.0038205534
-0.089436173 0.12758985 -0.0044895709
-0.068030775 0.15248236 -0.046887118
-0.089800209 0.13598603 0.0012520738
-0.068088114 0.15822247 -0.042046882
-0.063960552 0.16194417 -0.058923956
-0.059246659 0.17449518 -0.071122512
-0.036603153 0.17629145 -0.01930153
-0.045167327 0.16915904 -0.015668113
-0.044154286 0.16910426 -0.01654179
-0.073237389 0.16804355 -0.04068388
-0.085886449 0.13991356 -0.005612731
-0.086170644 0.13994196 -0.0046297982
-0.06584394 0.15933022 -0.05195114
-0.067327976 0.15949878 -0.046039958
-0.066827685 0.16631724 -0.053244345
-0.02429235 0.18205678 -0.025635919
-0.065159738 0.18140818 -0.068561338
-0.015588045 0.1834628 -0.032076284
-0.015379548 0.18494335 -0.032141626
-0.014359891 0.18491685 -0.033006102
0.024047256 0.11886129 -0.018428069
-0.0065925717 0.12379679 -0.020128895
0.00079369545 0.12385336 -0.019655097
0.025616586 0.12250504 -0.014217325
-0.012210667 0.12724391 -0.013986826
-0.019169748 0.057955056 -0.034685668
-0.020378768 0.058077693 -0.033762388
-0.021219313 0.058168262 -0.0328262
-0.022019923 0.05826655 -0.031861663
-0.02259624 0.05833447 -0.030899884
-0.023071229 0.058393657 -0.029944401
-0.023647368 0.058462262 -0.028983727
-0.024325848 0.058544308 -0.028017748
-0.024656653 0.058593512 -0.027042503
-0.024991572 0.058640957 -0.026065489
-0.025280535 0.058694005 -0.025072893
-0.025602221 0.058743834 -0.02409392
-0.02567178 0.058776081 -0.023097534
-0.025868058 0.058813065 -0.022108044
-0.026569366 0.058895886 -0.021154795
-0.026946723 0.058939546 -0.020199087
-0.0273543 0.058986574 -0.019254673
-0.086361706 0.13997519 -0.0036434084
0.035581052 0.10191786 -0.019036386
-0.003901124 0.12991008 -0.014459807
-0.013903916 0.11348724 -0.02768888
-0.048978031 0.060806304 -0.015806135
-0.049986184 0.060925692 -0.01484251
-0.050670803 0.061002165 -0.013888903
-0.051251829 0.061064422 -0.012940001
-0.051564932 0.06111604 -0.011955146
-0.0519889 0.061166525 -0.010975845
-0.052414358 0.061235189 -0.010010041
-0.052854657 0.061285704 -0.0090399273
-0.053305387 0.061341852 -0.008069396
-0.053533316 0.061407059 -0.0070590936
-0.053761542 0.061429471 -0.0060738772
-0.053955555 0.061468363 -0.0050824769
-0.054309726 0.061480492 -0.0041022301
-0.054647148 0.061512798 -0.0031125247
-0.054587603 0.061520249 -0.002099365
-0.05422461 0.061493933 -0.00095383078
-0.053961396 0.061431885 2.2016466e-06
-0.053535461 0.061432987 0.00104063
-0.053501427 0.061309487 0.002106782
-0.086561233 0.14001334 -0.0026590824
-0.086945385 0.14003092 -0.0016772375
-0.087125868 0.14008057 -0.00067863986
-0.087505072 0.14010319 0.00030363351
-0.087741524 0.14013046 0.0012658089
-0.088042319 0.14016065 0.0022454113
-0.05210197 0.061740339 0.011088185
-0.0898965 0.13602516 0.0022429302
-0.073024333 0.17186803 -0.053804707
-0.062362492 0.16322702 -0.063881844
-0.06163609 0.16316468 -0.065838769
-0.083311468 0.14398482 -0.0075630769
-0.08997798 0.13606057 0.0032402165
-0.050311387 0.061766803 0.018235706
-0.090033442 0.13608617 0.0042366385
-0.090236515 0.1361253 0.0052226931
-0.090390056 0.13613999 0.0062148906
-0.090456128 0.13616851 0.0072135143
-0.090429962 0.13620695 0.0082159862
-0.090300113 0.13625345 0.0092294514
-0.038798451 0.17335279 -0.019298617
-0.06269902 0.15753117 -0.062771469
-0.067798167 0.15247786 -0.047858939
-0.06831193 0.15252498 -0.045897733
-0.087019682 0.1551424 0.00090281665
-0.068277508 0.1582498 -0.041058689
-0.063743711 0.16191639 -0.059900314
-0.072282165 0.17444974 -0.057911314
-0.03746748 0.17628103 -0.01820286
-0.046510458 0.16919269 -0.01377796
-0.09024772 0.13627717 0.010234401
-0.090113521 0.13631973 0.011250176
-0.06849134 0.15685731 -0.041029379
-0.024542153 0.12692034 -0.012466591
-0.090043604 0.13633451 0.012253247
-0.069199413 0.15972275 -0.038157303
-0.064403236 0.16617075 -0.059096586
-0.066414416 0.18124464 -0.067659661
-0.016817629 0.18347535 -0.031181803
-0.052092016 0.16504012 -0.0080479756
-0.017489612 0.18494822 -0.030234898
-0.010615051 0.18639287 -0.035782918
-0.02372402 0.12496504 -0.016378254
-0.0054888725 0.1239008 -0.020166032
0.024704278 0.12273854 -0.014543768
-0.0098844767 0.12763223 -0.014289103
-0.018865228 0.059316367 -0.03571254
-0.020075977 0.059435964 -0.03479531
-0.020909727 0.059529573 -0.033846594
-0.021606803 0.059609324 -0.032889374
-0.022079229 0.059667975 -0.031928483
-0.022635221 0.059749842 -0.0309524
-0.02319175 0.059818834 -0.029982859
-0.02387476 0.059895456 -0.029018568
-0.024234295 0.059942514 -0.028061599
-0.0246858 0.060004652 -0.027091421
-0.025243819 0.060075313 -0.026120519
-0.025468409 0.060109913 -0.02514236
-0.025799453 0.060157865 -0.024182037
-0.025941491 0.060203344 -0.023156613
-0.026263058 0.060252994 -0.022179233
-0.026584864 0.060301751 -0.021200441
-0.027033985 0.060361862 -0.020229347
-0.027355313 0.060410261 -0.019252218
0.036358535 0.10141703 -0.018428721
-0.053934336 0.12659028 -0.018300246
-0.014962912 0.11350283 -0.027802885
0.053187907 0.067487806 -0.0043934025
-0.049566686 0.062258899 -0.015851956
-0.050385833 0.062337428 -0.014926679
-0.051052511 0.062416196 -0.013962671
-0.051692247 0.062502712 -0.01298482
-0.05212307 0.062560052 -0.012014568
-0.052472055 0.062590212 -0.011056259
-0.052851021 0.062604278 -0.010083765
-0.053406596 0.062648624 -0.0091557913
-0.053936124 0.062733024 -0.0081743188
-0.054544568 0.062679917 -0.0072693415
-0.054787636 0.062629402 -0.0062882043
-0.05508709 0.062588096 -0.0053108111
-0.088334531 0.14018697 0.0032291152
-0.088607341 0.14021856 0.0042147301
-0.08878842 0.14024693 0.0052027777
-0.088778913 0.14027712 0.0062020868
-0.088770419 0.14032423 0.0071989
-0.088600665 0.14033943 0.0082254335
-0.070232272 0.096711785 -0.024923872
-0.071271271 0.096677542 -0.024489004
-0.035429657 0.17169113 -0.022295397
0.022158384 0.099839628 -0.027846076
0.023139596 0.099835932 -0.027624751
-0.089912951 0.13637909 0.013268024
-0.089749873 0.13640589 0.014281474
-0.060252428 0.14039534 -0.018729683
-0.088432312 0.14037019 0.0092382506
-0.088185728 0.14039993 0.010262527
-0.087976873 0.14043087 0.011267819
-0.07360062 0.17192246 -0.050856143
-0.089676976 0.13642058 0.015281245
-0.089506924 0.13644439 0.016293041
-0.089280188 0.13649392 0.017315462
-0.089209259 0.13651171 0.018320538
-0.080221504 0.14382204 -0.011291578
-0.073479533 0.1640089 -0.034563981
-0.054995 0.17164135 -0.073120505
-0.06260401 0.17166889 -0.065160632
-0.065242261 0.15496233 -0.056816228
-0.064650923 0.15487185 -0.057941154
-0.066563785 0.17312291 -0.060481742
-0.068901479 0.1623635 -0.04323519
-0.064957649 0.16202724 -0.055974483
-0.068914801 0.15258944 -0.043933503
-0.086514324 0.15513822 -6.2838197e-05
-0.068466604 0.15827605 -0.040072348
-0.06335026 0.16189083 -0.060885135
-0.072895706 0.174548 -0.056909539
-0.072529405 0.17590889 -0.058923088
-0.043191075 0.16907513 -0.017454706
-0.072923422 0.1589025 -0.019322984
-0.07321623 0.15748894 -0.019311361
-0.06914866 0.15697649 -0.037070077
-0.076832324 0.15348947 -0.012378827
-0.078839183 0.15351111 -0.010473322
-0.089080423 0.13655019 0.019332431
-0.07306686 0.16415693 -0.030519679
-0.064062893 0.16614929 -0.060060121
-0.017975152 0.18346949 -0.030205561
-0.058861434 0.17013867 -0.070928715
-0.018371344 0.18498041 -0.029348062
-0.011757553 0.18637028 -0.034921639
-0.017733395 0.18645026 -0.029338839
-0.042384803 0.12137017 -0.0241764
-0.018012822 0.12457052 -0.017634522
-0.028797686 0.12410927 -0.017871857
0.027458966 0.11635509 -0.017388169
-0.018660784 0.060707748 -0.036714599
-0.019872546 0.060821652 -0.035799496
-0.020729423 0.060896844 -0.034881622
-0.021417916 0.060985684 -0.033908483
-0.021882534 0.061040968 -0.032950584
-0.022438943 0.061112911 -0.031974081
-0.022885084 0.061173767 -0.031005213
-0.023444891 0.061251163 -0.030033993
-0.023667395 0.061287254 -0.029061442
-0.024251342 0.061353892 -0.02810498
-0.024822772 0.061424077 -0.027140405
-0.02527535 0.061481655 -0.026169796
-0.025722802 0.061539054 -0.025202928
-0.026171625 0.06159994 -0.024229228
-0.026464105 0.061653912 -0.023236308
-0.026785374 0.061701775 -0.022258658
-0.026980579 0.061741769 -0.02127298
-0.027302682 0.061789781 -0.020292785
-0.087739527 0.14046249 0.012289412
0.031554461 0.1040771 -0.02175984
0.023636818 0.09684512 -0.028741898
-0.0170421 0.11351967 -0.02797783
0.020899057 0.095253617 -0.031315632
0.013776481 0.09859255 -0.033556446
0.014518917 0.092241049 -0.036836423
0.032883704 0.12108141 -0.0078402609
-0.051934421 0.063844979 -0.013091035
-0.052378416 0.063885838 -0.012146018
-0.053076148 0.063853711 -0.011277918
-0.05393225 0.063681811 -0.010490939
-0.054073155 0.063639104 -0.00953383
-0.087564498 0.14049336 0.013302386
-0.035825193 0.10041898 -0.030553889
-0.037815511 0.100375 -0.03063154
-0.087533116 0.14052284 0.014305837
-0.087617755 0.1405541 0.015298389
-0.076424509 0.13870668 -0.016237836
0.009889245 0.10964569 -0.026391044
0.025123656 0.099861443 -0.026928516
-0.024118185 0.1658559 -0.024309248
-0.0069480538 0.10946158 -0.02941926
-0.031717062 0.09764567 -0.031453915
-0.032708228 0.097619295 -0.031471953
-0.026687503 0.097738653 -0.031739607
-0.033339679 0.15985745 -0.020084787
-0.068223029 0.14176995 -0.018986888
-0.058319211 0.14040729 -0.018038586
-0.089030623 0.13657883 0.020336471
-0.089087188 0.13660347 0.02133435
-0.089158565 0.13663593 0.022331007
-0.067728817 0.17175604 -0.057534769
-0.070411175 0.17185314 -0.055635393
-0.073521584 0.17185967 -0.052861642
-0.073458254 0.17196101 -0.049846023
-0.087777913 0.14058471 0.016289741
-0.088561505 0.14311674 0.0091431662
-0.091933101 0.13217041 0.01024612
-0.036387801 0.17332275 -0.021109033
-0.053753972 0.16358937 -0.0081200115
-0.052408934 0.16346893 -0.010996282
-0.049691677 0.16337143 -0.013681144
-0.067041576 0.17176922 -0.058465883
-0.063465536 0.16330226 -0.060931209
-0.089306533 0.13665769 0.023323417
-0.090689719 0.13247141 0.02134753
-0.060216308 0.171593 -0.069028303
-0.085975111 0.15508291 -0.0010030344
-0.083030313 0.15497756 -0.0047499761
-0.06912902 0.15836516 -0.037109453
-0.068121076 0.16367927 -0.047217399
-0.073066562 0.17458467 -0.055912271
-0.072773278 0.17592579 -0.057930186
-0.04211694 0.16906464 -0.018376213
-0.089381278 0.13668808 0.024319485
-0.073212981 0.15746284 -0.020310022
-0.075069994 0.15346733 -0.014304768
-0.07434693 0.15340891 -0.01626201
-0.075975358 0.15349361 -0.013365198
-0.089423597 0.13671371 0.025313713
-0.089447975 0.13673142 0.026304357
-0.063644767 0.166126 -0.061040387
-0.019178629 0.18346894 -0.029284673
-0.020252526 0.18499684 -0.02745153
-0.019323885 0.18499218 -0.028411886
-0.019301653 0.18650647 -0.027474627
-0.018571973 0.18647614 -0.028399225
-0.043492496 0.12128747 -0.02416493
0.01166153 0.12555626 -0.018758383
-0.037769794 0.11217788 -0.028091125
0.030986965 0.11521876 -0.015812345
-0.01832968 0.062087536 -0.03770458
-0.019691706 0.062194556 -0.036832623
-0.020546913 0.062270105 -0.035915233
-0.021380007 0.062359303 -0.034965463
-0.021845758 0.062413782 -0.03400341
-0.022413611 0.062482893 -0.033029336
-0.022973657 0.062563449 -0.032061033
-0.023416638 0.062621564 -0.031085748
-0.023739636 0.062671304 -0.030108372
-0.024063468 0.062723041 -0.02912819
-0.024488091 0.062787294 -0.028150793
-0.02494818 0.062716901 -0.027193697
-0.025387704 0.06290397 -0.026211025
-0.025858223 0.062957406 -0.025252281
-0.026437283 0.063027412 -0.024291245
-0.026733398 0.06308198 -0.02329818
-0.027054667 0.063131124 -0.022321967
-0.027504444 0.063191146 -0.021348115
-0.027698934 0.063228339 -0.020363223
0.032383978 0.10370934 -0.021271259
-0.042517722 0.12692839 -0.020022087
-0.033143759 0.038716197 -0.036158249
-0.01597935 0.1135349 -0.027913252
-0.0076297522 0.11348313 -0.027202958
-0.00073260069 0.11450291 -0.027811
0.0033578873 0.1177341 -0.024943113
0.0082732439 0.096467346 -0.037885044
0.021750927 0.098360062 -0.028540166
0.014892638 0.10265222 -0.027697667
-0.061312258 0.066061139 -0.011747621
-0.062349319 0.066153824 -0.01081891
-0.063282669 0.066413701 -0.0098066144
-0.034814596 0.10042617 -0.030568231
-0.036819398 0.10039493 -0.030588238
-0.038819969 0.10035792 -0.030588053
-0.039824009 0.10033476 -0.030516714
-0.068274498 0.14467266 -0.019576978
-0.023162127 0.041246176 0.047447063
-0.027691782 0.097719371 -0.031687234
-0.028694868 0.097698271 -0.031622097
-0.029689491 0.097675294 -0.031647071
-0.030709743 0.097662956 -0.031512246
-0.053855538 0.095752656 -0.029927025
-0.051774621 0.095840573 -0.031091036
-0.050754011 0.095868051 -0.031284165
-0.052805543 0.09580183 -0.030628221
-0.065905422 0.12422857 -0.01994206
-0.059284091 0.16023797 -0.066821784
-0.071211934 0.09378469 -0.024640728
-0.030782461 0.10050431 -0.030925715
-0.064086854 0.16341279 -0.058999475
-0.063766062 0.16332953 -0.059947409
-0.063063741 0.16327776 -0.06191488
-0.062746823 0.16325182 -0.06289126
-0.062033474 0.16319919 -0.064855345
-0.087960839 0.14281943 0.002174709
-0.087142497 0.14832762 -0.00094547123
-0.087468594 0.14834914 1.7341226e-05
-0.088060498 0.1406101 0.017271928
-0.039818466 0.17341922 -0.018435262
-0.04191947 0.17347148 -0.015601151
-0.073294133 0.1640843 -0.032541059
-0.055205047 0.1703347 -0.072822407
-0.08657521 0.1483216 -0.0018843338
-0.073474377 0.16135609 -0.029468201
-0.041353166 0.17346796 -0.01656023
-0.042197466 0.17354548 -0.013641346
-0.063814104 0.15765262 -0.060846455
-0.08236289 0.15495092 -0.0057459883
-0.080923706 0.15488726 -0.0076284334
-0.069336891 0.15839121 -0.036125112
-0.088701606 0.14348346 0.021153755
-0.037978053 0.17629793 -0.017406449
-0.018949628 0.17176759 -0.027975012
-0.084026039 0.096241862 -0.0071900114
-0.067340016 0.1499542 -0.035735067
-0.073251247 0.15743029 -0.021314472
-0.07464239 0.15343428 -0.015279572
-0.077730387 0.15350601 -0.011431701
-0.091105521 0.13229793 0.015294023
-0.06168896 0.16033551 -0.065750167
-0.06109494 0.16598175 -0.066885397
-0.020276904 0.18348476 -0.028380658
0.056200266 0.070846766 -0.0014778934
-0.073592365 0.16525736 -0.039625112
-0.012950718 0.18638094 -0.033995003
-0.052565932 0.12020427 -0.023589101
-0.046784163 0.12338439 -0.02258274
-0.038868964 0.11205673 -0.028023571
0.032801509 0.11472973 -0.015115824
-0.019132078 0.06354475 -0.037832804
-0.020356894 0.063654572 -0.036949001
-0.021232367 0.063718021 -0.036032725
-0.022013128 0.063829303 -0.03504397
-0.022454023 0.063893586 -0.034063585
-0.022898793 0.063950986 -0.033089817
-0.02334249 0.064011216 -0.032118358
-0.023560822 0.064048469 -0.031142633
-0.02413702 0.064111561 -0.030179327
-0.024562478 0.064176589 -0.02919749
-0.025010169 0.064237446 -0.028231837
-0.02533257 0.064285219 -0.02725186
-0.025801599 0.064331651 -0.026291439
-0.026285052 0.064388812 -0.025337595
-0.026851892 0.064450413 -0.024373399
-0.027129829 0.064521581 -0.023369454
-0.027451456 0.064569354 -0.02239123
-0.028426588 0.064513206 -0.021637246
0.026382208 0.10603476 -0.024356524
-0.013036907 0.10972837 -0.029622946
0.035373747 0.10914794 -0.016854193
-0.030638278 0.039471 -0.036717817
-0.0087726116 0.11328644 -0.027059572
0.011538088 0.10064539 -0.031931341
-0.00097590685 0.11751196 -0.025026344
0.0035113096 0.097305 -0.039225232
0.035207868 0.08375448 -0.023716057
0.057091773 0.074095905 0.0012846217
-0.062218785 0.067274988 -0.013014961
-0.063467443 0.067470461 -0.012036763
-0.064358443 0.067576975 -0.01107727
-0.065240204 0.067707181 -0.010107644
-0.065864563 0.06784004 -0.0091112256
-0.066630334 0.067951083 -0.0081507042
-0.052900434 0.1567347 -0.012465227
-0.077283353 0.075932473 0.0085270479
-0.078778684 0.079171866 0.010617919
-0.066090494 0.095401019 -0.026514368
-0.067113966 0.095370233 -0.026197527
-0.068130523 0.095337212 -0.025861699
-0.069957256 0.12562028 -0.019386955
-0.066921562 0.12420955 -0.019814901
0.0068195462 0.11247012 -0.0260626
-0.036197484 0.11327654 -0.027591284
-0.078491747 0.13720733 -0.015127823
0.0078086257 0.1124779 -0.025872402
-0.07406956 0.11967403 -0.016995341
-0.070184946 0.093830258 -0.025238747
-0.077535629 0.14016166 -0.015144184
-0.074357539 0.14020389 -0.017193016
-0.067845047 0.15385854 -0.047913663
-0.055030584 0.16212471 -0.008153148
-0.073557913 0.15754002 -0.01231081
-0.078191876 0.15606377 -0.0084227733
-0.063444793 0.16047756 -0.060845338
-0.06123668 0.16312422 -0.06686011
-0.060765386 0.1630961 -0.067813605
-0.059977889 0.16313489 -0.068633012
-0.067249775 0.1458464 -0.021448087
-0.037610412 0.17334919 -0.020220801
-0.040648818 0.17344294 -0.017503411
-0.088323951 0.14063981 0.018261246
-0.088499784 0.14067027 0.019250505
-0.055551648 0.17300226 -0.07332398
-0.059779465 0.17299274 -0.070034206
-0.062425733 0.17305593 -0.066190466
-0.073130339 0.16282342 -0.02846927
-0.073553771 0.16263191 -0.033527985
-0.07020244 0.16241899 -0.040329874
-0.065395921 0.15784755 -0.054888248
-0.081714123 0.15494639 -0.006691996
-0.069631487 0.15841663 -0.035137642
-0.073364526 0.16123432 -0.033471707
-0.038313806 0.17633043 -0.016443741
-0.065113544 0.17035533 -0.060296163
-0.08784464 0.11813855 -0.0040854439
-0.088760406 0.14069694 0.020235993
-0.073181629 0.15739685 -0.022310831
-0.079879463 0.15355071 -0.0095580518
-0.070778698 0.15164131 -0.028995406
-0.068061829 0.15388247 -0.046930686
-0.050674438 0.053775102 0.027448036
-0.06218034 0.16033272 -0.064826287
-0.049856246 0.16633035 -0.011921506
-0.049185514 0.16631001 -0.012865961
-0.073221833 0.16519961 -0.041603103
-0.073511779 0.16519253 -0.04063677
-0.020016789 0.18653937 -0.026530942
-0.088856578 0.14072809 0.021226242
-0.024738073 0.12501243 -0.016514227
-0.013220429 0.12213722 -0.02078326
-0.036659658 0.11224943 -0.028070362
-0.018339097 0.0648579 -0.038851693
-0.019798696 0.064997435 -0.037946999
-0.020765424 0.065091789 -0.037023164
-0.021711886 0.065189153 -0.036076542
-0.022551894 0.065273702 -0.035138164
-0.023091674 0.065353692 -0.034149781
-0.023288667 0.065394163 -0.033160426
-0.023611844 0.065445542 -0.032181695
-0.023934305 0.06549105 -0.031199563
-0.024509132 0.06556049 -0.030240322
-0.02497226 0.065615475 -0.029277399
-0.025428116 0.065670997 -0.028306965
-0.025770783 0.065719396 -0.027336029
-0.0263322 0.065784335 -0.026371939
-0.026794195 0.065841049 -0.025419302
-0.027368248 0.065901011 -0.024451256
-0.027652562 0.065968812 -0.023449576
-0.027975678 0.066018254 -0.022469088
-0.028296173 0.066064358 -0.021492247
-0.01206708 0.10958147 -0.02937041
0.037042737 0.10842422 -0.015896179
0.036202848 0.10878566 -0.016370188
-0.013930023 0.038082421 -0.033054873
0.0098426342 0.10295832 -0.028456172
0.043266237 0.097068459 -0.012946695
0.044862747 0.096186191 -0.011825517
0.0063867569 0.096826583 -0.038455222
0.020552218 0.11139366 -0.022639904
0.019689739 0.11173719 -0.023062693
-0.063915133 0.068826199 -0.013144985
-0.065053314 0.068958044 -0.012200888
-0.065968007 0.069046885 -0.011253148
-0.066846043 0.069170475 -0.010285877
-0.067728102 0.069284499 -0.0093294978
-0.068442702 0.069299579 -0.0084208176
-0.072658747 0.10667384 -0.02066078
-0.073101372 0.074953377 0.01798939
-0.073743433 0.10664192 -0.01987052
-0.074292541 0.13726544 -0.017667726
-0.062532365 0.14930731 -0.035953194
-0.071326673 0.069745868 -0.0025252812
-0.071684003 0.069864154 -0.0015389621
-0.071773022 0.069868207 -0.00067018345
-0.077144057 0.11962122 -0.015242044
-0.028625071 0.094837844 -0.032013141
-0.027641594 0.094870001 -0.032004803
-0.029633045 0.094818652 -0.031965334
-0.030638099 0.094799548 -0.031906396
-0.032203913 0.16573532 -0.023520738
-0.033187032 0.16574068 -0.023389487
-0.054111719 0.10724282 -0.028423321
-0.05486095 0.094274253 -0.029431887
0.026242971 0.1115118 -0.020245478
-0.068854332 0.15542719 -0.042012878
-0.068663985 0.15539691 -0.04299964
-0.068385154 0.15537238 -0.043986212
-0.035478175 0.11364287 -0.027457664
-0.043903053 0.117107 -0.025747353
