# .PCD v0.7 - Point Cloud Data file format
VERSION 0.7
FIELDS x y z
SIZE 4 4 4
TYPE F F F
COUNT 1 1 1
WIDTH 813
HEIGHT 1
VIEWPOINT 0 0 0 1 0 0 0
POINTS 813
DATA ascii
0.5488137 0.098856658 -0.060712226
0.55138123 0.098078832 -0.060548138
0.54586428 0.1042188 -0.061006412
0.55056041 0.10151388 -0.061037797
0.54954547 0.089653336 -0.051952466
0.55304581 0.087539703 -0.052731477
0.53592944 0.098579578 -0.051573668
0.54592294 0.095645741 -0.054573189
0.55284506 0.094935536 -0.055543311
0.53711164 0.10407399 -0.054883737
0.54462409 0.10419261 -0.055623759
0.55064136 0.1011031 -0.056519836
0.5538078 0.07943923 -0.041576039
0.54830962 0.08799734 -0.044537328
0.55414075 0.084541865 -0.04498437
0.53563952 0.096051693 -0.044514742
0.54480147 0.095029928 -0.044538658
0.55341536 0.095010154 -0.045157354
0.53720528 0.10145205 -0.047486719
0.54415548 0.10128974 -0.046771761
0.64948666 0.0076311524 -0.030321866
0.65169156 0.0082834084 -0.030778062
0.64966077 0.012452133 -0.030170834
0.65239108 0.01230112 -0.030279459
0.65638286 0.02955246 -0.030223874
0.63740337 0.038604416 -0.031573739
0.64550728 0.036115322 -0.033094674
0.6551103 0.035101123 -0.033148021
0.66411865 0.036445349 -0.031459812
0.67058486 0.038822118 -0.030285167
0.62793386 0.046923161 -0.032666843
0.63489157 0.044783268 -0.035793159
0.64498568 0.045022517 -0.037763607
0.65487719 0.045085181 -0.035694059
0.66482264 0.045063153 -0.032717831
0.67201012 0.045978166 -0.030467456
0.62677324 0.054766893 -0.034305878
0.63498861 0.055159036 -0.038547341
0.64467585 0.054996151 -0.038364708
0.65471053 0.054934762 -0.035819858
0.66477561 0.054918755 -0.033030521
0.67197448 0.053978875 -0.03055962
0.62761283 0.062987804 -0.032799702
0.63483888 0.065305568 -0.036005426
0.64493912 0.065033264 -0.037282329
0.65522659 0.064837337 -0.035236441
0.66519177 0.064796574 -0.032293897
0.67166489 0.063042916 -0.030506769
0.55398709 0.07852935 -0.034907751
0.63666344 0.072302356 -0.032249838
0.645114 0.074641623 -0.033325233
0.65516245 0.075275265 -0.032273516
0.66280305 0.073223293 -0.030850505
0.53814578 0.088691443 -0.034524024
0.54619634 0.086339161 -0.035376128
0.55609363 0.084071591 -0.035309616
0.64928472 0.080255039 -0.030307651
0.65431154 0.080264054 -0.030270251
0.53759271 0.093446575 -0.035924945
0.5447877 0.097566269 -0.035052396
0.55424452 0.094343923 -0.0350556
0.63994682 0.008591596 -0.0203181
0.64468992 0.0047632172 -0.024683762
0.653301 0.007638522 -0.025037892
0.63999057 0.010252764 -0.020321099
0.64497596 0.014709181 -0.025721841
0.6561538 0.014862037 -0.027357403
0.6640569 0.016659245 -0.024663981
0.6463275 0.025718853 -0.024095584
0.65478003 0.024672734 -0.028215902
0.66485989 0.024863804 -0.026955785
0.67417091 0.025221091 -0.02381661
0.68160766 0.029001107 -0.021918133
0.59934115 0.038128354 -0.02054932
0.60530263 0.035708096 -0.02123847
0.61247265 0.03734434 -0.020816613
0.62917966 0.039487634 -0.022149233
0.63535225 0.036113247 -0.02462736
0.64266682 0.031653788 -0.026530351
0.6500634 0.030170955 -0.0296706
0.66707456 0.0321876 -0.028455384
0.6753937 0.034642115 -0.025686068
0.68480408 0.035652675 -0.022849817
0.69035727 0.038589623 -0.020556767
0.59765613 0.045228723 -0.021094915
0.60473639 0.045153409 -0.021924201
0.61475515 0.045210768 -0.021910969
0.62518054 0.044645734 -0.025021018
0.63108194 0.040855676 -0.028507268
0.67644644 0.044388305 -0.028461739
0.68512601 0.045120161 -0.024207072
0.69059068 0.045352049 -0.02091122
0.59810776 0.053006634 -0.020766653
0.60511309 0.055000208 -0.021530652
0.61518008 0.055035591 -0.023316015
0.62245196 0.055113882 -0.026596151
0.67684335 0.055452842 -0.029015016
0.68501294 0.055313908 -0.025375688
0.69055206 0.056394957 -0.02103675
0.60687011 0.062915906 -0.020358961
0.61507684 0.06500724 -0.022461046
0.62438285 0.065746829 -0.025631374
0.63028759 0.069618978 -0.0281292
0.66902673 0.069446847 -0.029629249
0.67600322 0.065459229 -0.028279707
0.68415755 0.064710818 -0.023434669
0.54982686 0.079087749 -0.022888767
0.55418527 0.077594802 -0.025802732
0.56038946 0.078947179 -0.0216655
0.61717874 0.073062241 -0.021497373
0.62481093 0.07527668 -0.022592453
0.63457453 0.075830363 -0.025726905
0.64258158 0.079021074 -0.027965313
0.66654569 0.076171711 -0.02843309
0.67542905 0.07527221 -0.025189048
0.68179268 0.073702551 -0.021943102
0.5394277 0.088108294 -0.028483372
0.54462188 0.084362537 -0.025041141
0.55931932 0.086646482 -0.026351493
0.5606339 0.083928257 -0.024286531
0.62769169 0.08306177 -0.021359116
0.63510633 0.08509133 -0.021856213
0.64504135 0.084432185 -0.023359774
0.6549207 0.08499483 -0.025593378
0.66495341 0.084865183 -0.024793979
0.67375666 0.083842352 -0.022030642
0.53927249 0.091346681 -0.028332885
0.54477596 0.094633736 -0.025090754
0.5544402 0.093424857 -0.025187487
0.63780576 0.091777653 -0.020214774
0.6452505 0.091173187 -0.020320227
0.65542966 0.092477188 -0.021625651
0.66406292 0.091784634 -0.021076316
0.6706146 0.09077175 -0.020016599
0.57838875 0.12793063 -0.020716144
0.58495378 0.12750909 -0.021769322
0.59260756 0.12851623 -0.021974372
0.57736266 0.13573731 -0.022507248
0.58514744 0.13601917 -0.025501058
0.59172571 0.13287148 -0.024570541
0.57797998 0.1410951 -0.022900688
0.58266723 0.14073937 -0.027082367
0.63537598 -0.0032494187 -0.011393356
0.64161402 -0.00077027944 -0.012880156
0.63739133 0.0049270098 -0.01295834
0.64501762 0.0033407619 -0.015604013
0.65139991 0.0080715828 -0.018289877
0.59605765 0.01896123 -0.011540533
0.60496569 0.018553089 -0.011952701
0.61115807 0.019030903 -0.011126567
0.62679315 0.018405478 -0.01088643
0.63659227 0.015046734 -0.012291617
0.64268678 0.016292918 -0.015010012
0.6553095 0.014486956 -0.015499681
0.66299456 0.018089753 -0.017719753
0.58638418 0.026137963 -0.012827181
0.59476751 0.024823692 -0.015918
0.60491931 0.025159569 -0.017485071
0.61489093 0.02537128 -0.014881188
0.62501127 0.025000066 -0.013490284
0.63541615 0.025475536 -0.012087177
0.64286703 0.024831556 -0.015091618
0.66619569 0.02253535 -0.014664981
0.67422599 0.026343614 -0.015852265
0.6813904 0.028806794 -0.017965537
0.57900053 0.036392037 -0.010732272
0.58484864 0.035064969 -0.014498709
0.59481996 0.034598652 -0.01837988
0.60366714 0.031317852 -0.019654801
0.61621094 0.034248747 -0.018568089
0.62475061 0.035008386 -0.017562192
0.63427216 0.032989863 -0.01685261
0.64038539 0.030151904 -0.0194047
0.67779213 0.031534899 -0.012940673
0.68518674 0.033111624 -0.014341637
0.69212437 0.037623763 -0.014633756
0.57863271 0.045486871 -0.010909246
0.58503026 0.0449569 -0.01515979
0.59291458 0.044757772 -0.018692778
0.62349898 0.041220374 -0.019482575
0.69251841 0.045067307 -0.015386627
0.57915485 0.053337574 -0.010721239
0.58496243 0.055193353 -0.014619468
0.59402412 0.055553615 -0.018725105
0.69360971 0.05578493 -0.015395048
0.58648837 0.064196885 -0.01277288
0.59493166 0.064892419 -0.016218036
0.6039027 0.066377267 -0.0186843
0.61072963 0.068969965 -0.019297568
0.68859231 0.065894842 -0.019119736
0.69283366 0.064535595 -0.014457334
0.54884255 0.078885645 -0.014866171
0.55444264 0.07543391 -0.014993412
0.56175792 0.077648036 -0.014189499
0.58872861 0.071182691 -0.010676533
0.59549284 0.073113471 -0.01231795
0.60523939 0.074681297 -0.01445239
0.61364233 0.07628873 -0.017615823
0.62050194 0.07965 -0.019732401
0.68635982 0.075842984 -0.016944056
0.69193661 0.074038424 -0.012437264
0.54465836 0.084309012 -0.015226099
0.55740154 0.088698149 -0.013764448
0.56165695 0.083557941 -0.015062033
0.60855323 0.080838777 -0.011322425
0.61583751 0.084065594 -0.014088695
0.62396234 0.085981496 -0.01758511
0.63146549 0.089429796 -0.01934512
0.6775409 0.086858809 -0.018975087
0.68380159 0.084464513 -0.014363239
0.69071138 0.080082864 -0.0107925
0.54699552 0.091862693 -0.016272532
0.55348372 0.091506615 -0.016229993
0.61927348 0.091309346 -0.0111896
0.62568468 0.094264008 -0.013266458
0.63440305 0.095971748 -0.017413763
0.64499032 0.096165426 -0.018526308
0.65480173 0.097212084 -0.017810484
0.66558093 0.0964818 -0.017355027
0.67495608 0.094829224 -0.01489575
0.68173021 0.092325129 -0.012676795
0.56934977 0.10773732 -0.010585921
0.57534081 0.10663529 -0.011622299
0.58171606 0.10842654 -0.011215016
0.62885857 0.10036206 -0.01045435
0.63581622 0.10294542 -0.012867569
0.6451754 0.10425685 -0.013518234
0.65499002 0.10387626 -0.013239376
0.66453582 0.10301114 -0.01271307
0.67101026 0.10128342 -0.011233318
0.56859779 0.11496072 -0.011625372
0.57481468 0.11487174 -0.014880781
0.58464867 0.11542424 -0.013904661
0.59125817 0.11892805 -0.011812788
0.56922102 0.12310967 -0.012026567
0.5753172 0.12512973 -0.015354853
0.58508688 0.12451793 -0.015432509
0.59271771 0.12494097 -0.015083001
0.57495403 0.13462 -0.015157949
0.58394647 0.13234505 -0.018281037
0.59183997 0.13080904 -0.018985625
0.57582283 0.14066753 -0.018994069
0.6250385 -0.011892762 -0.0034410895
0.61992115 -0.0077697299 -0.00030127799
0.62523454 -0.0051543824 -0.0059146029
0.63444549 -0.0056696655 -0.0054174317
0.6413846 -0.0011161951 -0.0049164668
0.62641567 0.005139926 -0.0044333376
0.6317091 0.0057603237 -0.0089612203
0.64547312 0.0033106529 -0.0054701264
0.58596575 0.017489918 -0.0036143323
0.59433377 0.015086899 -0.0055957423
0.6054402 0.013909093 -0.0046132901
0.61521184 0.01539143 -0.0044428445
0.62401956 0.01369628 -0.0061605559
0.63188875 0.012431585 -0.0093390653
0.64936268 0.010638971 -0.005119944
0.65497619 0.014734578 -0.0049743741
0.66082513 0.019108532 -0.0050139246
0.57710493 0.025884526 -0.0037028086
0.58297324 0.023107875 -0.0074972007
0.6172666 0.020405855 -0.0095116096
0.66598296 0.023107309 -0.0050283922
0.67256057 0.028189901 -0.0049866703
0.56972599 0.039765365 -0.0011010895
0.57417625 0.034901891 -0.0052093705
0.67736495 0.031789556 -0.0053731692
0.68531388 0.033657379 -0.0050631557
0.69257557 0.037421532 -0.0053960318
0.55788916 0.048185755 -0.0016777556
0.56558853 0.046085142 -0.0028331177
0.57353538 0.044878602 -0.0066381684
0.69572067 0.044642627 -0.0054452112
0.70171362 0.048863113 -0.0015249368
0.55644745 0.055249836 -0.0030857879
0.56499159 0.054923523 -0.0069186739
0.57444435 0.05515131 -0.0086066192
0.69710749 0.054863703 -0.0069174063
0.70401758 0.055319056 -0.0031678891
0.54955316 0.069353998 -0.00082553597
0.55512834 0.065161735 -0.0041540847
0.56509489 0.064970322 -0.0082443357
0.57512432 0.064972833 -0.0084283203
0.58227688 0.066365331 -0.0084103262
0.6972959 0.065190539 -0.0073434417
0.70506126 0.065314136 -0.0053866622
0.71107769 0.067082658 -0.001432868
0.54828268 0.07691586 -0.0045366646
0.55375481 0.073067263 -0.0070481799
0.56557441 0.075181685 -0.0074209399
0.57501715 0.075457677 -0.0050084153
0.58503443 0.074348293 -0.0046897135
0.59394878 0.077968232 -0.0060604629
0.60181701 0.078646779 -0.0084375869
0.6959762 0.075605884 -0.005191341
0.70505494 0.075213835 -0.0043847137
0.71108264 0.07442797 -0.0016530256
0.54738766 0.084097877 -0.0058332286
0.55489206 0.086813897 -0.0050623505
0.56478488 0.084359787 -0.0035477923
0.57278961 0.084619313 -0.0014933724
0.59722435 0.080786608 -0.0025437397
0.60572839 0.083569556 -0.0046896948
0.61265385 0.087837145 -0.0074446406
0.68797296 0.087026596 -0.0071904361
0.69236475 0.083534136 -0.0039792256
0.70480865 0.081936598 -0.0014325848
0.71008551 0.080340117 -0.00081651902
0.56562817 0.095251076 -0.0033413123
0.57503682 0.095389076 -0.0046464866
0.58055156 0.098438397 -0.0022501559
0.61615318 0.094469808 -0.0046078926
0.62233293 0.09841153 -0.0083850566
0.67774343 0.099097535 -0.00844019
0.68432212 0.094836384 -0.00491685
0.56505442 0.10493908 -0.0057321093
0.57541317 0.10267986 -0.0080212578
0.58362556 0.10569885 -0.0048462823
0.61956012 0.10054288 -0.0018978827
0.62578464 0.10344333 -0.0047764648
0.63419825 0.10746916 -0.0062944726
0.64455348 0.10883968 -0.0082999403
0.65532482 0.10872145 -0.00831501
0.66576993 0.10750783 -0.0058970186
0.67430091 0.10361015 -0.0047464264
0.6807996 0.10066195 -0.0015635318
0.56572562 0.1148979 -0.0048504313
0.57545429 0.11539298 -0.0037386972
0.58588892 0.11485531 -0.0049546091
0.59109408 0.11769029 -0.0078070527
0.63685101 0.11100418 -0.0019303794
0.64514512 0.11169788 -0.0032829414
0.65472406 0.11167876 -0.0033587732
0.66197544 0.11076509 -0.0021679928
0.56842035 0.12274519 -0.0062287622
0.57348871 0.12463183 -0.0067014867
0.58674574 0.12090119 -0.0090184659
0.59173834 0.12133309 -0.0086130407
0.57270956 0.13120052 -0.008889487
0.61948329 -0.01140013 0.0046109902
0.62417883 -0.012620241 0.0052470034
0.61918461 -0.0062583908 0.0047386996
0.62229204 -0.0037920438 0.0058121323
0.6350916 -0.005660201 0.0051220534
0.64135838 -0.0009535756 0.0041561914
0.59897268 0.0099149439 0.0081841061
0.6044597 0.0094899861 0.0069846725
0.61051375 0.0098348539 0.0087207146
0.62369436 0.0058634523 0.0052323183
0.63957691 0.00048690103 0.0092553496
0.64600068 0.0029712378 0.0056591206
0.65153253 0.0064759976 0.0072407704
0.57793874 0.018680338 0.0055099833
0.58490837 0.014792304 0.0050589754
0.59484059 0.0112619 0.0049956064
0.60487366 0.010725215 0.0019677051
0.61556584 0.012080803 0.0050123017
0.62201703 0.011508452 0.0059088147
0.65642834 0.015563959 0.0043994999
0.66118574 0.019113902 0.0050246376
0.56946599 0.029116787 0.0084125521
0.57376218 0.02479123 0.004712834
0.6661889 0.022928622 0.0049919281
0.67414713 0.028146707 0.0054691928
0.68169695 0.029235497 0.0063102436
0.55881417 0.039500482 0.0085800374
0.56723899 0.036240932 0.0057452898
0.57079691 0.031951554 0.002129409
0.67700446 0.030688385 0.0017341145
0.68594879 0.032552376 0.0033513387
0.69306403 0.038017694 0.0026491792
0.55538833 0.045375206 0.0052647619
0.56404966 0.041719832 0.0021269878
0.69750822 0.041413799 0.0053248205
0.7030642 0.046309792 0.0056730425
0.54878789 0.055994693 0.0066470723
0.55205983 0.053645819 0.0027062176
0.7081567 0.053724084 0.0042902953
0.71103936 0.057828207 0.0069972053
0.54684526 0.065443851 0.0052968585
0.55072182 0.063365355 0.00056213653
0.71329653 0.065352075 0.0045958846
0.54487169 0.074588679 0.0047133397
0.57945693 0.079858094 0.000440434
0.58600825 0.078769043 0.0041471436
0.59089625 0.07961566 0.0039433679
0.71435428 0.075482689 0.0046161967
0.54837042 0.081926815 0.005199967
0.55487794 0.086318217 0.004875829
0.56089264 0.088475585 0.00094659853
0.57673889 0.085311659 0.0044259341
0.58160383 0.080843799 0.0066269166
0.59570152 0.081785843 0.0051824916
0.60439813 0.085810065 0.0046527036
0.6954844 0.086425565 0.0043213232
0.70538908 0.087152943 0.0032919566
0.71224165 0.083737575 0.0058072209
0.55975527 0.091524489 0.0054867547
0.56263644 0.096396111 0.0057222745
0.57579207 0.095402159 0.0060815779
0.58046019 0.098672241 0.0012877454
0.60907274 0.091155566 0.0062908321
0.61346936 0.095988832 0.0046820445
0.68664849 0.095862873 0.0043461705
0.69084162 0.091076717 0.0063062012
0.70457482 0.090746276 0.0077215824
0.56519866 0.10455255 0.0043653245
0.57470191 0.10480443 0.003969206
0.58146834 0.10564037 0.0014368838
0.61836606 0.10164589 0.0056130029
0.62435651 0.10665021 0.004139747
0.63033426 0.10987347 0.00079916749
0.66853446 0.1093542 0.0017554823
0.67520106 0.10644797 0.0046229274
0.68183804 0.10160027 0.0051447824
0.56775427 0.11325617 0.0018013011
0.57138556 0.11283084 0.0014221481
0.58264315 0.11129141 0.0010350349
0.62902129 0.11055177 0.007000227
0.63505548 0.11251785 0.004852958
0.64482385 0.11419174 0.0048823943
0.65491343 0.11392408 0.0049717897
0.66468042 0.111524 0.0054690149
0.6249218 -0.011218454 0.012603141
0.62549978 -0.0057209963 0.015047785
0.63376743 -0.0065208697 0.0149674
0.59842628 0.0099299895 0.013278884
0.60521734 0.0093136495 0.014751757
0.61121756 0.0097290846 0.013557582
0.627451 0.0048417686 0.013469874
0.63067013 0.0071802381 0.017917324
0.64878923 0.0068726996 0.012563032
0.65281415 0.0078801354 0.014819145
0.57749653 0.018496916 0.014708659
0.58482802 0.014207083 0.015329989
0.59457904 0.010721806 0.015412394
0.602341 0.010300864 0.01896102
0.61568582 0.011618234 0.015580889
0.62612718 0.012934128 0.014778151
0.63002986 0.011124989 0.0166633
0.65753388 0.01574322 0.015343143
0.66131586 0.019043345 0.014857176
0.5691728 0.028274169 0.014897753
0.57252783 0.023276376 0.014931114
0.66627771 0.02281482 0.014919597
0.67502964 0.028191241 0.015156486
0.68164617 0.029178429 0.014856209
0.55801004 0.038734511 0.015343108
0.56570089 0.035407607 0.014945849
0.68471545 0.031254891 0.016410589
0.54928881 0.04817538 0.016069554
0.55279446 0.04329424 0.014429055
0.6978789 0.042169787 0.015386356
0.70320791 0.046098396 0.015391191
0.54710466 0.055252466 0.01488158
0.70821041 0.05286609 0.01557798
0.71110857 0.057931311 0.015188694
0.53888124 0.067558102 0.015857121
0.54264194 0.063403837 0.013889938
0.71411955 0.064486019 0.014742821
0.5392015 0.071062803 0.015920071
0.54254657 0.076143436 0.014630842
0.58773583 0.079026259 0.015113668
0.59165454 0.078855619 0.016366983
0.71591783 0.075329676 0.014687001
0.54775226 0.082203336 0.015099481
0.55436182 0.087163165 0.014977313
0.56979436 0.089988276 0.0194038
0.57521087 0.085852779 0.015171741
0.58239359 0.08123441 0.014546667
0.59623659 0.081795529 0.014582947
0.60415173 0.085774697 0.01522344
0.69549042 0.088251151 0.015219621
0.70944691 0.089390323 0.015716486
0.71291822 0.084973626 0.014645875
0.55929226 0.090454273 0.0154497
0.56525195 0.092678696 0.014578815
0.57156587 0.092074469 0.01224703
0.60893798 0.091404229 0.014756111
0.61302555 0.096469253 0.015156355
0.68654889 0.096239775 0.014826107
0.69307268 0.091054671 0.014012493
0.70474178 0.091286197 0.014794361
0.61804199 0.10192713 0.014863612
0.62383163 0.10708392 0.015031846
0.66914564 0.10984907 0.016667318
0.67511213 0.1065053 0.014661956
0.68152416 0.10175393 0.014660325
0.62885439 0.11071213 0.015062856
0.63498956 0.11301468 0.014968893
0.64494789 0.11481351 0.014995303
0.65493119 0.11432183 0.015061473
0.66467059 0.1117202 0.014742682
0.62624794 -0.010316424 0.0288608
0.6263662 -0.0056024338 0.025501257
0.63462996 -0.0053970991 0.025445426
0.64105469 -0.00088781986 0.027744152
0.60622376 0.0099220797 0.0200567
0.62785244 0.005575364 0.025414707
0.63034284 0.0058147344 0.02087584
0.64635336 0.003374621 0.027722139
0.6520313 0.0076525551 0.024882834
0.57818437 0.019193409 0.022477292
0.58507246 0.016260304 0.024984553
0.59498769 0.012906497 0.025098968
0.6051535 0.012231082 0.025086958
0.61478704 0.01430167 0.024855113
0.62497801 0.014280546 0.025338132
0.65643919 0.015130369 0.025515746
0.66112739 0.019060185 0.024379322
0.56948155 0.029204544 0.020878125
0.57443213 0.024794187 0.025178205
0.58087265 0.021044899 0.02895304
0.66615158 0.022931805 0.024947023
0.67273664 0.027882073 0.024934443
0.68079358 0.029738888 0.020057799
0.55838019 0.039308939 0.021911735
0.56668288 0.036925536 0.023090752
0.57153875 0.034248929 0.027843166
0.6776886 0.031431369 0.025020108
0.68485171 0.033574283 0.025121383
0.69291902 0.03783204 0.025034422
0.54924661 0.048097648 0.023430495
0.55380356 0.042995371 0.025294695
0.5642696 0.040367365 0.027803451
0.57031411 0.040264349 0.029320201
0.69787675 0.043295566 0.025480565
0.70189339 0.047723461 0.023531234
0.54754084 0.055265427 0.024660219
0.69946402 0.051995564 0.029859675
0.70524454 0.054663219 0.025765028
0.71034998 0.058980882 0.021564534
0.53923738 0.066924065 0.022688989
0.54217517 0.063574336 0.02554437
0.58956873 0.069438756 0.029747199
0.59142065 0.069336198 0.028944969
0.70862776 0.063528232 0.028356003
0.71228176 0.065900996 0.023724541
0.53937727 0.070773199 0.022030113
0.5431937 0.075585343 0.02536156
0.57792777 0.07926286 0.028507277
0.58558321 0.076582044 0.025751933
0.59461808 0.075495489 0.025370432
0.60277522 0.078428574 0.027979169
0.6964047 0.077270508 0.02847901
0.70719469 0.076675676 0.029250082
0.71297741 0.075246252 0.024359766
0.54806143 0.081843071 0.024444403
0.55464846 0.086789072 0.02527296
0.56729096 0.08854375 0.026986448
0.57411158 0.083417147 0.024699973
0.58144736 0.080465108 0.021702178
0.5983789 0.080654889 0.021659819
0.60599375 0.08346653 0.024156095
0.61132294 0.087914452 0.027636571
0.68871522 0.088345133 0.027918361
0.69468236 0.084719233 0.024697537
0.70508462 0.085410953 0.025419677
0.71173853 0.08324264 0.022372417
0.55920309 0.090275489 0.021615475
0.56438339 0.091096051 0.024341132
0.60994792 0.090603434 0.021386201
0.6148724 0.095484428 0.025028134
0.62064135 0.099715039 0.029314552
0.67928278 0.099189788 0.028451979
0.68517423 0.095075026 0.024811668
0.69047511 0.090655424 0.021634601
0.70358723 0.090375736 0.020736439
0.61877126 0.10146226 0.022889493
0.62495023 0.10544896 0.025134902
0.63298774 0.10887655 0.028219197
0.66695851 0.108425 0.026569707
0.67487144 0.10433787 0.024852445
0.68109089 0.10090225 0.02206699
0.6293968 0.11004402 0.021747999
0.63553309 0.11162826 0.02407999
0.64502877 0.11309148 0.025010113
0.65509915 0.11276198 0.025208155
0.663306 0.11109294 0.023742685
0.6260199 -0.010307951 0.033533491
0.62463373 -0.0060864105 0.035334952
0.63500684 -0.0046529546 0.035094738
0.64067787 -0.00040491577 0.03470055
0.62578398 0.0050847204 0.035627101
0.63087481 0.0092068054 0.039039299
0.64566177 0.0031663955 0.035042468
0.65139174 0.007477764 0.035198193
0.58729279 0.01837449 0.032154657
0.59535444 0.017083386 0.033650082
0.60490578 0.016723208 0.033854231
0.61428702 0.018177973 0.032701217
0.62690419 0.015803536 0.033863734
0.63416398 0.015735921 0.038848832
0.64199507 0.018069372 0.039369989
0.65636665 0.016022952 0.034196302
0.66073042 0.019429045 0.033873212
0.57815224 0.02752318 0.031956468
0.58450878 0.024703912 0.035614848
0.59443748 0.021985069 0.038422164
0.60539824 0.021384934 0.03864887
0.61574107 0.023344142 0.037346832
0.62402898 0.023376469 0.037285112
0.63693064 0.024135441 0.039100099
0.64384085 0.025536068 0.037673298
0.66558874 0.023268372 0.034968916
0.67278707 0.028218791 0.03422207
0.68121266 0.029376391 0.0386094
0.55831861 0.039453279 0.036015641
0.5632115 0.039198525 0.035753954
0.57621843 0.035446018 0.033374429
0.5819822 0.034808595 0.038140424
0.63714105 0.035012174 0.038828604
0.64280176 0.032775991 0.038319841
0.67716473 0.031960212 0.032933153
0.68573737 0.034456715 0.03476385
0.692487 0.037746135 0.034720525
0.55318993 0.044701245 0.03453185
0.5678702 0.040614314 0.034130234
0.57521683 0.042903837 0.036678392
0.58259743 0.045689363 0.038515739
0.634242 0.04032594 0.039868001
0.69605249 0.045702726 0.035297275
0.54827625 0.055745758 0.03472944
0.5502457 0.051081631 0.037236027
0.58538187 0.0550103 0.037583649
0.59389168 0.057070032 0.038667042
0.68989211 0.056032255 0.039969549
0.69527805 0.055037301 0.035567373
0.7027142 0.05833805 0.030460576
0.54475534 0.064486906 0.034812752
0.57651418 0.069279015 0.039594725
0.58575457 0.065263085 0.036189176
0.59481716 0.06493409 0.034307107
0.60503197 0.065541081 0.037630491
0.61168486 0.067955866 0.039471287
0.69521976 0.065134309 0.035148587
0.70402938 0.065170057 0.031770736
0.54662526 0.074377209 0.034740534
0.55232477 0.078281343 0.038259864
0.56691992 0.076619253 0.037194084
0.57511652 0.074814312 0.034925535
0.58359677 0.072914474 0.033130642
0.59823871 0.072244018 0.031198712
0.60560209 0.0741641 0.033080403
0.61358422 0.075721197 0.037371527
0.68773228 0.07666821 0.038362298
0.69366205 0.07425794 0.033794384
0.70403498 0.07421609 0.031222198
0.54943925 0.080967776 0.030965535
0.55581504 0.083670795 0.034449078
0.56456065 0.084868364 0.034361806
0.57098037 0.081733555 0.031027254
0.60912251 0.08111123 0.03101694
0.61537868 0.084794067 0.034958106
0.62176919 0.086609282 0.038952872
0.67909765 0.088608831 0.039206568
0.68525076 0.085205525 0.035408247
0.69093829 0.081911489 0.031192739
0.56328046 0.090060279 0.0304369
0.61765254 0.093167454 0.032182965
0.62455219 0.09539333 0.035949804
0.63454473 0.097750798 0.038545907
0.6439991 0.097735964 0.039229684
0.65520036 0.099380292 0.03957114
0.66642612 0.098946147 0.038844571
0.67599118 0.096074581 0.035938859
0.68239135 0.092507936 0.032756537
0.62699586 0.10208926 0.03202112
0.63562059 0.10452583 0.034128606
0.64482892 0.1053442 0.035123855
0.65521616 0.10545761 0.035343323
0.6646384 0.10384966 0.034259807
0.67283005 0.10154448 0.032172646
0.64663076 0.11060628 0.03108866
0.65364969 0.11038271 0.030641381
0.62705714 -0.0048596873 0.0430183
0.63435972 -0.0035697022 0.044458218
0.64048982 -0.00036566798 0.042215824
0.62716836 0.002744616 0.042988878
0.63513201 0.0049786 0.044450976
0.6446529 0.0054856739 0.04342261
0.65226418 0.0086826058 0.044812601
0.63803422 0.012242702 0.040893834
0.64558238 0.014522691 0.044629239
0.65669119 0.011781864 0.046213638
0.66409534 0.016926581 0.04683122
0.58860803 0.028797725 0.040770575
0.59550357 0.026707845 0.041837823
0.60490954 0.025989171 0.041875951
0.61378092 0.028017484 0.041224018
0.62599993 0.027652605 0.040760219
0.63273495 0.026065001 0.04074439
0.64768016 0.023676336 0.043868367
0.65344042 0.027416471 0.047057576
0.66718435 0.026013926 0.048529658
0.67433661 0.025640115 0.045988198
0.68109399 0.029164195 0.042448401
0.55885804 0.039639235 0.040736862
0.5628984 0.039472256 0.041427236
0.58693439 0.035030037 0.041396249
0.5949747 0.034878004 0.044190109
0.60481369 0.034950815 0.044579942
0.61479753 0.034935229 0.043179892
0.62503803 0.034931373 0.042115971
0.63323963 0.035161853 0.041010007
0.64580488 0.035761099 0.04423774
0.65403849 0.032420136 0.047945995
0.66579121 0.032442085 0.048213739
0.67507273 0.03446845 0.047004215
0.68493962 0.0350268 0.044197969
0.69159293 0.037999704 0.041910544
0.5557754 0.045090046 0.044321526
0.56505454 0.043968048 0.0464167
0.57434481 0.046024192 0.044855118
0.58758485 0.044355791 0.041222651
0.59498239 0.045024954 0.043244332
0.60485619 0.045000929 0.044394348
0.61502957 0.044986278 0.043307409
0.625458 0.045182217 0.042642366
0.63466161 0.044285908 0.044852063
0.64244211 0.041361589 0.047912903
0.67898118 0.044186957 0.04886518
0.68497461 0.04521472 0.044717897
0.69246221 0.044852778 0.041821383
0.54900628 0.057662483 0.041893858
0.5528813 0.054181885 0.04599512
0.56190521 0.050756812 0.049604259
0.5784989 0.055037919 0.046796799
0.58115196 0.055582244 0.04177627
0.59620816 0.052929383 0.041128434
0.60475039 0.05512153 0.041983865
0.61490864 0.055037204 0.04342078
0.62480706 0.05468867 0.045941569
0.67865431 0.056358032 0.04936425
0.68518198 0.055181868 0.045009114
0.69097555 0.052136533 0.040539183
0.54848737 0.064525254 0.042217858
0.55377167 0.065611981 0.04738332
0.56588697 0.067625754 0.047151078
0.57500333 0.064785764 0.044371564
0.58087748 0.063602835 0.040717538
0.60473192 0.060818862 0.040240582
0.61542749 0.064440705 0.042368583
0.62443972 0.065251604 0.045612622
0.63000739 0.069970094 0.0489325
0.67778605 0.065395199 0.048179131
0.68511647 0.065027639 0.043928176
0.69041574 0.064814404 0.04022434
0.54928827 0.071762778 0.040912122
0.55566418 0.074522957 0.043492608
0.56385493 0.073603243 0.043141037
0.61800843 0.073689081 0.041100584
0.62524235 0.074782602 0.043124612
0.63411903 0.076737784 0.046193372
0.67629123 0.075419769 0.046902809
0.68356311 0.074051835 0.041787852
0.62602377 0.084410332 0.041650537
0.63523877 0.084726281 0.043504611
0.64412594 0.08493682 0.046097264
0.6549477 0.087041825 0.048257578
0.66518867 0.085420869 0.048020653
0.67482895 0.084606096 0.044302288
0.68137455 0.082337409 0.041192062
0.62843239 0.09085834 0.040437836
0.63550735 0.092986293 0.041268528
0.64524645 0.093216598 0.041984871
0.65510827 0.09460602 0.044185165
0.66465688 0.094141439 0.043443646
0.67287928 0.092522301 0.041716509
0.65311652 0.0099966973 0.050042499
0.64952356 0.015587603 0.050381616
0.65483946 0.014911075 0.052554753
0.66263938 0.017537482 0.05222309
0.64994913 0.020453028 0.0500228
0.65600109 0.023450615 0.052285116
0.66425127 0.02404887 0.051253758
0.64895654 0.038848042 0.050587703
0.65504128 0.037255522 0.051428612
0.66388804 0.037144613 0.051621426
0.67083484 0.039304476 0.050955568
0.56825483 0.048978768 0.050850589
0.57218945 0.048987523 0.050903756
0.63619059 0.048154805 0.05223088
0.64516169 0.0454075 0.05330779
0.65468174 0.044814542 0.054853998
0.66516691 0.044932209 0.054439433
0.67430478 0.045598902 0.0520913
0.55768812 0.056144334 0.051604841
0.56539679 0.055113014 0.05255153
0.5736661 0.055129893 0.052206293
0.62859631 0.056283306 0.051871408
0.63450217 0.054733593 0.055617057
0.64487177 0.055129543 0.056924969
0.65495515 0.054961022 0.057259485
0.66534817 0.055045463 0.055868186
0.67407572 0.054719806 0.052299473
0.55764204 0.062626578 0.051219236
0.56449306 0.062899999 0.051504456
0.57226717 0.061303832 0.051030725
0.62847316 0.063465692 0.05174721
0.63467675 0.065092698 0.055476923
0.64474601 0.064995766 0.05731421
0.65501308 0.064956099 0.057089489
0.6652925 0.064994574 0.055001918
0.67287642 0.064606756 0.051700808
0.63649064 0.073603697 0.052742835
0.64463568 0.07517647 0.054873373
0.65512788 0.074975565 0.055338107
0.66499561 0.075247176 0.052655447
0.67176253 0.073233292 0.051065493
0.6459825 0.080991179 0.051481549
0.65537131 0.082292132 0.051716872
0.66330653 0.080811769 0.050673071
