# .PCD v0.7 - Point Cloud Data file format
VERSION 0.7
FIELDS x y z
SIZE 4 4 4
TYPE F F F
COUNT 1 1 1
WIDTH 561
HEIGHT 1
VIEWPOINT 0 0 0 1 0 0 0
POINTS 561
DATA ascii
-0.065499127 0.17423232 -0.055680651
-0.063858151 0.16759108 -0.054926757
-0.071425736 0.15462697 -0.043693569
-0.078871518 0.17465694 -0.043141674
-0.071026504 0.16458701 -0.047848009
-0.066899836 0.16040535 -0.04784292
-0.074625969 0.17999363 -0.048261322
-0.067449987 0.17455919 -0.049651515
-0.06427002 0.16665865 -0.049414303
-0.026992619 0.078146219 -0.029972158
-0.021165848 0.072136521 -0.030715737
-0.014488399 0.067039132 -0.029589016
-0.024386823 0.086128592 -0.030789096
-0.016182423 0.080409199 -0.031570502
-0.0088141561 0.075165331 -0.029623117
-0.018607855 0.091953039 -0.030262064
-0.010043085 0.088801295 -0.030251443
-0.0036736727 0.083428979 -0.029310718
-0.074548423 0.15519024 -0.035573605
-0.072403252 0.15191057 -0.036141522
-0.080893755 0.17259797 -0.036660455
-0.074648201 0.16335033 -0.037800498
-0.06616801 0.15901202 -0.036665112
-0.076674134 0.17693597 -0.038480356
-0.068982422 0.17210667 -0.03696863
-0.065100789 0.16606908 -0.036773432
-0.041222215 0.039699703 -0.020234738
-0.033856988 0.036547422 -0.021324176
-0.035218954 0.046835214 -0.019820888
-0.027347565 0.043818235 -0.021695957
-0.01800102 0.03898558 -0.019490328
-0.009173274 0.036956042 -0.017288044
-0.032158256 0.068636745 -0.018218536
-0.02807641 0.061503679 -0.020884961
-0.020258844 0.053676099 -0.023023315
-0.010533631 0.046659172 -0.020402912
-0.0016797185 0.04182449 -0.017145719
-0.035465658 0.085724801 -0.018501721
-0.032570839 0.077629685 -0.022905063
-0.025933206 0.0681853 -0.026432086
-0.012787819 0.062032253 -0.027595393
-0.0033783317 0.056726933 -0.024289746
0.006303966 0.050543398 -0.01933286
0.013550818 0.048108041 -0.016325168
-0.032876372 0.09202987 -0.019474659
-0.029947579 0.08865881 -0.026169721
-0.0041570067 0.071713835 -0.027710348
0.0031710863 0.066526443 -0.024945281
0.013125122 0.059839278 -0.020677377
0.019595563 0.05631268 -0.017360341
-0.027090549 0.099635154 -0.01785434
-0.019731641 0.097817689 -0.023374509
-0.0076388717 0.09421137 -0.027890906
0.0020847917 0.082938343 -0.027045593
0.010288119 0.0761666 -0.023759004
0.019043207 0.069626689 -0.019355707
0.022920489 0.062192678 -0.016758244
-0.076722115 0.15476367 -0.024632934
-0.071936905 0.14962819 -0.024541218
-0.01177305 0.10165751 -0.019380428
-0.0029000044 0.098929644 -0.022475846
0.0073723197 0.093590468 -0.02282054
0.017013907 0.086511791 -0.01975454
0.022887528 0.079621643 -0.017160919
-0.080409378 0.16917872 -0.026763171
-0.076117903 0.16504928 -0.023991114
-0.065205276 0.15833656 -0.024525937
0.012407243 0.097922027 -0.017239165
0.018458366 0.093865097 -0.016811218
-0.076055586 0.17339359 -0.029588915
-0.070389032 0.17023651 -0.026678745
-0.06587559 0.16610149 -0.028292179
-0.018390954 0.17541797 -0.018277649
-0.014168561 0.17269631 -0.018507257
-0.01668328 0.18262169 -0.020301465
-0.012797594 0.17647144 -0.020334732
-0.055338323 0.036109328 -0.0057579828
-0.050267935 0.036061138 -0.0070244381
-0.045335889 0.04001978 -0.011024698
-0.034632206 0.03710866 -0.012140443
-0.078698218 0.086464047 -0.0072280141
-0.073830009 0.080713958 -0.0087448657
-0.065386117 0.074424565 -0.0093236538
-0.055222571 0.069387317 -0.0072252369
-0.046948373 0.062585026 -0.0060909353
-0.037107944 0.050200403 -0.010879849
-0.027386367 0.040171862 -0.0097424211
-0.017447889 0.038401157 -0.01124503
-0.0086430311 0.036763847 -0.012883709
-0.076647073 0.094042629 -0.0087153884
-0.069931388 0.087962478 -0.011762063
-0.05995208 0.081183195 -0.013573532
-0.049999177 0.074425071 -0.010489062
-0.039711237 0.067971796 -0.0090163061
-0.031951487 0.060076445 -0.011594995
-0.010135412 0.04106015 -0.0071596606
-0.00085359812 0.038815349 -0.0096796257
0.0084943175 0.037843049 -0.0095124645
-0.071385145 0.10357714 -0.0090187825
-0.063002527 0.097845107 -0.013313244
-0.05298537 0.090855658 -0.015729569
-0.043183625 0.084141344 -0.014405184
-0.036285818 0.075994939 -0.014140551
0.0075400472 0.043977857 -0.01569549
0.016127586 0.042780161 -0.010772063
-0.064140856 0.11275947 -0.0090101678
-0.056020141 0.1078428 -0.013087654
-0.046363771 0.10072818 -0.015569597
-0.038381755 0.095400572 -0.01686012
0.023900032 0.052709609 -0.010644701
-0.057791591 0.11940295 -0.0075299721
-0.049359202 0.11733308 -0.0095285978
-0.039525449 0.11093751 -0.012754844
-0.029985666 0.10490057 -0.016167741
-0.019292414 0.10339493 -0.016865261
0.025117934 0.069665998 -0.014344645
0.02894944 0.062654227 -0.0094975652
-0.079366863 0.15574655 -0.013195834
-0.070902348 0.14769861 -0.012345678
-0.043185115 0.12185025 -0.0066075213
-0.032991886 0.11801136 -0.0083259651
-0.022780836 0.11379153 -0.012118853
-0.013016284 0.10829729 -0.015453833
-0.0023884177 0.10389164 -0.015688106
0.0060961246 0.10098767 -0.016161427
0.024258375 0.087816596 -0.015322556
0.028513491 0.079792023 -0.012469095
0.033432305 0.073177129 -0.0067572696
-0.075122178 0.1653526 -0.013631553
-0.066001117 0.15778057 -0.012887812
-0.015112042 0.12055638 -0.0075845169
-0.0062408447 0.11681244 -0.0110382
0.0037458539 0.10975009 -0.013060675
0.014142513 0.10390273 -0.013774899
0.024416208 0.096459687 -0.012767791
0.032945335 0.089485407 -0.0084859813
0.035890579 0.082172126 -0.0041882917
-0.041852653 0.16224426 -0.0063013872
-0.039988339 0.16130267 -0.006300929
0.0010457039 0.12244493 -0.0071727475
0.010103822 0.11887184 -0.0080672437
0.019713402 0.11195695 -0.0074990401
0.028358161 0.10463557 -0.0066508017
0.034255624 0.096813142 -0.0045397412
-0.03929913 0.16955727 -0.0080803679
-0.031893492 0.16480117 -0.0085307537
-0.023237765 0.16323283 -0.0069586439
-0.032657564 0.17908399 -0.0097038476
-0.024512589 0.17418025 -0.011291827
-0.016535461 0.16853961 -0.011026693
-0.025175393 0.18690498 -0.010371109
-0.02035445 0.18321334 -0.01358327
-0.013593078 0.1749575 -0.015416197
-0.071434677 0.036148876 0.0039218646
-0.068995297 0.0351713 0.0024384335
-0.067935944 0.042393893 0.0027241046
-0.06143713 0.037781954 -0.00084060896
-0.051662803 0.035411388 0.00027733296
-0.070513248 0.065776825 0.0048666717
-0.059029222 0.05327183 0.0042797765
-0.054755569 0.048016071 -0.00090639759
-0.044872642 0.038790405 -0.0015488267
-0.035215437 0.040572315 0.00073284283
-0.084655166 0.086235911 0.00063724816
-0.078706861 0.077130795 -0.0010343036
-0.068407893 0.068558633 -0.00057187397
-0.057723463 0.063157737 -0.00011221785
-0.047520876 0.056521416 -0.0038974602
-0.039070606 0.05360055 -0.0042490726
-0.028143644 0.040739566 0.0011078622
-0.018058598 0.041165054 0.0014788816
-0.08609122 0.10070953 0.0019838382
-0.082637399 0.095157593 -0.0030789655
-0.039865851 0.061262518 -0.0050565656
-0.035819054 0.058861494 -0.0043489309
-0.010576606 0.041551709 0.0010331748
-0.0006557703 0.041611969 0.0014935294
0.0092097521 0.037955165 0.0019369414
-0.088031322 0.12017396 0.0032332512
-0.081567347 0.11151204 0.00064192247
-0.07663238 0.10688502 -0.0049212268
0.01798147 0.039935678 0.0012441305
0.023397505 0.041278303 0.0057562618
-0.085541964 0.12818462 0.0010611964
-0.076087803 0.12145174 -0.0024410761
-0.068358183 0.11701801 -0.0047343019
0.026273608 0.049642205 -0.00096292794
0.03192395 0.046911836 0.0044097938
0.039881885 0.046207756 0.0082829548
-0.083905011 0.1443063 0.0032554204
-0.079459131 0.13804966 -0.0006642947
-0.069230199 0.1312319 -0.0030868482
-0.059475422 0.12535441 -0.0027944129
-0.050529659 0.12459931 -0.0050112242
0.033663213 0.060335487 -0.0016203299
0.03881216 0.056504011 0.0026685512
0.046138167 0.052282691 0.0065604588
-0.080091536 0.15403725 -0.0013661878
-0.070895791 0.14613909 -0.0033147326
-0.062688708 0.14148757 0.00050672051
-0.054223299 0.13250262 0.0022388482
-0.042887211 0.12707913 -9.0812333e-05
-0.032718301 0.12366781 -0.0011084387
0.038940191 0.07190305 0.0016073985
0.045955539 0.065244794 0.005820631
0.051581979 0.060451299 0.00698826
-0.074761927 0.16088529 -0.0022130944
-0.066951692 0.15565372 0.00012838375
-0.055710793 0.1512022 0.0030075386
-0.047621369 0.14978001 0.003603938
-0.025224149 0.12599352 0.0022543492
-0.017264366 0.12560335 -0.00085630734
0.039089918 0.090284675 -0.0011477936
0.040399849 0.083391398 0.0031635342
0.050797701 0.070107996 0.0088850306
-0.054787755 0.16526683 0.0030098613
-0.049154699 0.16092063 -0.0019973693
-0.0393098 0.1554742 6.7220069e-05
-0.0089709163 0.12981805 0.002190291
0.0006967783 0.12827817 -0.00013042707
0.012414634 0.12427595 -0.0025694212
0.023501992 0.11643276 -0.0027640741
0.033315361 0.10827801 0.00074106548
0.038628578 0.09837988 0.0027572336
0.042234182 0.091330618 0.0069174329
-0.049923599 0.17101716 0.0025620153
-0.04228425 0.1717743 0.0005949894
-0.031310618 0.16280225 0.00076043326
-0.02418381 0.16121535 -0.00091542955
0.0073071122 0.13093609 0.0048971139
0.015546679 0.12662193 0.0032941885
0.025000632 0.12025875 0.0031236727
0.032108724 0.11412561 0.0051116003
-0.034247518 0.17893086 -0.0009401571
-0.028042018 0.17160341 -0.0041507101
-0.019524217 0.16497968 -0.0034169545
-0.028096199 0.18495935 -0.0044488478
-0.072661877 0.036501884 0.011907314
-0.06929493 0.035273612 0.011223418
-0.069827259 0.043286979 0.012026039
-0.06206125 0.035257995 0.012325623
-0.052054405 0.035551995 0.011533032
-0.080360025 0.071543545 0.012443106
-0.072344184 0.064923793 0.011764345
-0.061240971 0.055484623 0.011654264
-0.05839026 0.051158607 0.014503877
-0.044203281 0.036442995 0.012606011
-0.037855148 0.036091357 0.014443581
-0.091119349 0.092390597 0.013069117
-0.08821404 0.084238231 0.010740732
-0.083272934 0.075765073 0.0098468652
-0.059865057 0.059702426 0.011913047
-0.055568993 0.056592286 0.017390296
-0.027349353 0.040582001 0.012353796
-0.018502235 0.040923685 0.013374818
-0.08991161 0.10121423 0.010875876
-0.088205546 0.093778431 0.006016382
-0.010769963 0.041280478 0.013410392
-0.0022612214 0.039542258 0.014084223
0.0075082183 0.037620872 0.011315522
-0.096018732 0.12601855 0.014774284
-0.093047708 0.11934263 0.010984982
-0.087732494 0.11061555 0.0097913081
0.016131401 0.038415104 0.011713128
0.024569929 0.038553327 0.015016292
-0.093087047 0.13368315 0.011628062
-0.091383636 0.12857184 0.0068555912
0.03316021 0.040793747 0.013874187
0.039512157 0.043388993 0.015304527
-0.092685908 0.1511924 0.015865766
-0.089244127 0.14520615 0.010690919
0.048275471 0.049374223 0.014931546
-0.082218677 0.15505075 0.011021758
-0.055519223 0.14221975 0.0061952053
-0.051282823 0.13606709 0.011381623
-0.041606486 0.13008434 0.012076952
-0.033959985 0.12780693 0.011296424
0.042535841 0.07365799 0.010000498
0.045589685 0.071482807 0.010134825
0.055505097 0.059384704 0.014849118
-0.074595988 0.15733379 0.010765512
-0.066561282 0.15724674 0.011032489
-0.052997291 0.15006208 0.014085575
-0.050348997 0.14658287 0.010819203
-0.026153266 0.12889564 0.01282102
-0.018112302 0.13065878 0.01070617
0.043662906 0.082476437 0.014389989
0.051972389 0.074302644 0.014981921
0.057533681 0.068214297 0.016311094
-0.056568563 0.16407147 0.0091516962
-0.049035251 0.16099723 0.012180655
-0.041394472 0.15580219 0.0092947027
-0.0094248056 0.13295662 0.013119339
-0.00085377693 0.1337032 0.010655227
0.037577927 0.10791704 0.0086861281
0.041242898 0.1004864 0.014323845
0.043096423 0.091484755 0.014425981
-0.050420284 0.17018057 0.0063267378
-0.044226944 0.16932747 0.0080017569
-0.03498596 0.16101788 0.007601534
0.0057743192 0.13361058 0.013484149
0.016655743 0.12976497 0.013758133
0.026677907 0.12290886 0.014097814
0.034791708 0.11349827 0.014222707
0.03854835 0.10805526 0.015702561
-0.067964613 0.040875256 0.019182369
-0.062830031 0.038085341 0.023752216
-0.055225253 0.03542906 0.024301257
-0.08050859 0.071483016 0.022742905
-0.072376132 0.064966112 0.023867752
-0.06479305 0.060991853 0.021778602
-0.05546087 0.048937201 0.023945469
-0.035141528 0.036754936 0.024468627
-0.09208855 0.092841268 0.022763051
-0.088533789 0.083518058 0.023307338
-0.083665967 0.076175451 0.024600569
-0.066908658 0.064021438 0.029490635
-0.060578704 0.060913503 0.025980812
-0.053309858 0.056153595 0.023878265
-0.026601255 0.040425479 0.025382698
-0.018571913 0.040887684 0.025229752
-0.091322243 0.10190645 0.022994358
-0.011221051 0.041203618 0.025775779
-0.0021042228 0.039655536 0.02600681
0.0066517591 0.037706763 0.028198138
-0.097651362 0.1259622 0.022614788
-0.095449448 0.1174126 0.022721436
-0.089530975 0.1103752 0.023240786
0.015868843 0.038363189 0.029836304
0.024647057 0.039010644 0.026525613
-0.095330268 0.13494694 0.022433069
0.032755554 0.041337341 0.028062869
0.039306581 0.043739766 0.026500795
-0.094166547 0.15099159 0.022419102
-0.094739974 0.14453027 0.021995325
0.048149645 0.049268633 0.027525704
-0.09123233 0.15392584 0.02340835
-0.083274603 0.15641949 0.02305067
-0.056272626 0.1428706 0.027817626
-0.051439822 0.13643953 0.024166103
-0.042437971 0.12880045 0.024233472
-0.034011245 0.12657809 0.026492897
0.042430162 0.074280351 0.032215226
0.043503702 0.073235661 0.032695126
0.055994272 0.05908829 0.02723866
-0.074916661 0.15778181 0.022921223
-0.066463649 0.15751827 0.02336606
-0.05666256 0.15091404 0.023397509
-0.05351156 0.14275575 0.019957844
-0.02600497 0.1287491 0.02410702
-0.018478274 0.13088682 0.027001563
0.043285668 0.082849145 0.026854686
0.05209446 0.075512618 0.027223174
0.057690203 0.068509966 0.026841756
-0.0097516179 0.13321388 0.024852294
-0.0014738441 0.13404745 0.027019467
0.036822796 0.10804954 0.030660328
0.040480554 0.10034063 0.026406493
0.042547643 0.091439337 0.025809411
0.0053752065 0.13379729 0.025264379
0.01649797 0.1299271 0.025912989
0.026340842 0.12317094 0.026161801
0.034355044 0.11357325 0.02617301
0.038228393 0.10808665 0.021693308
-0.066893578 0.043487787 0.037767414
-0.063338637 0.037239522 0.035794318
-0.052807927 0.036282748 0.036293294
-0.077048182 0.070322037 0.030259494
-0.072811723 0.067345113 0.029953435
-0.063692987 0.047997326 0.039661925
-0.056868613 0.050585717 0.035804573
-0.04528904 0.036518097 0.037844721
-0.037601352 0.037029654 0.036239158
-0.090316772 0.093219846 0.030472279
-0.086104155 0.08607924 0.034431815
-0.079590708 0.076636374 0.03596637
-0.069822848 0.068924755 0.036186982
-0.058434248 0.064786255 0.036557872
-0.053093255 0.05782944 0.037562963
-0.028226376 0.040839374 0.036998749
-0.019138277 0.041344821 0.037064258
-0.087870389 0.10089472 0.033019241
-0.084407687 0.095592976 0.038281735
-0.011579871 0.0417054 0.037862819
-0.0014718771 0.041911513 0.037230741
0.0083864927 0.038903266 0.037031446
-0.096987516 0.12628356 0.032883823
-0.094935894 0.11880273 0.034847844
-0.085597754 0.10985383 0.035459146
-0.080538869 0.10471466 0.040308625
0.0056170821 0.042230725 0.039202575
0.014440656 0.038680792 0.038528387
0.022174418 0.041098863 0.037749838
-0.094729334 0.13397273 0.034489792
-0.060783505 0.11581329 0.041554123
-0.058873832 0.11474559 0.041557189
0.027700663 0.052647054 0.044035271
0.030633032 0.047011614 0.038345233
0.039110243 0.046096504 0.034061056
-0.094100475 0.15013048 0.029126648
-0.092995882 0.14614242 0.034433722
-0.055907011 0.12400362 0.040128518
-0.051147521 0.1191487 0.038275372
-0.041174114 0.11584163 0.040744111
0.032885313 0.061002254 0.043315347
0.037733018 0.05597347 0.04052848
0.045362473 0.051945448 0.03613482
-0.082502812 0.15463634 0.03466757
-0.074252248 0.15462777 0.039062995
-0.061234236 0.14175463 0.037430692
-0.054834247 0.13364509 0.035463136
-0.044646144 0.12459382 0.033192694
-0.033925831 0.12081847 0.036829337
-0.026886106 0.11895773 0.041543771
0.037541807 0.072354168 0.040053066
0.04488802 0.065963447 0.038206689
0.051810563 0.060690403 0.035931159
-0.074877381 0.15740022 0.030666228
-0.067256808 0.15573971 0.035190534
-0.059865117 0.15059167 0.034230433
-0.025287509 0.12559703 0.033627026
-0.018385947 0.12585458 0.038300097
0.03657186 0.089941889 0.041703176
0.03927803 0.083334893 0.037664656
0.050637126 0.071658552 0.03471433
0.05463165 0.067757726 0.034191553
-0.0097971559 0.13025734 0.03555572
-0.00052887201 0.12859103 0.038986687
0.010567546 0.12395021 0.04208516
0.021703899 0.11678135 0.042678285
0.031611323 0.10789916 0.039925218
0.037226796 0.098587334 0.037512019
0.041068494 0.091445118 0.033357881
0.0060884953 0.13153315 0.034276966
0.014836907 0.12709951 0.036495578
0.024462283 0.12058315 0.036959399
0.031888068 0.11365375 0.035131134
-0.066392303 0.044242054 0.043838281
-0.062628031 0.038871437 0.048384253
-0.053208351 0.036871642 0.047757778
-0.063482881 0.048149168 0.044027355
-0.055813253 0.047224402 0.048575576
-0.04569 0.040621579 0.049305521
-0.03648746 0.037592828 0.049882229
-0.081353664 0.086794198 0.041965667
-0.075453401 0.080657303 0.04361603
-0.066867113 0.07434094 0.044155452
-0.057313085 0.069338739 0.043126132
-0.047377944 0.057814419 0.044978268
-0.038298726 0.05054301 0.048144896
-0.028190911 0.041576713 0.04889328
-0.018928468 0.038985163 0.050490081
-0.010583282 0.037721455 0.052055817
-0.078940749 0.094367772 0.044090521
-0.071710706 0.088292122 0.048134238
-0.061756074 0.081301183 0.04902881
-0.052039981 0.074137866 0.047022376
-0.042415142 0.067573071 0.04737534
-0.031206667 0.060822874 0.045812886
-0.024581373 0.055512547 0.052209314
-0.010139465 0.046419501 0.051743109
-0.0024554729 0.040488333 0.05240928
0.0068904757 0.038238436 0.049056936
-0.096570253 0.12625664 0.043313954
-0.094350785 0.11909437 0.046966065
-0.083928734 0.11239767 0.047629856
-0.074503541 0.10555258 0.044668894
-0.064812839 0.098278075 0.049123302
-0.054861546 0.09128049 0.050646517
-0.045135081 0.084299296 0.049438838
-0.034793437 0.077659488 0.048819307
-0.027717829 0.069435179 0.050587535
-0.023289144 0.062360108 0.054704774
-0.0042332411 0.048807919 0.054681774
0.0053385496 0.047822684 0.053729262
0.014491618 0.04310903 0.050299756
0.021759391 0.043388397 0.044708606
-0.093628109 0.13387224 0.045408089
-0.092458606 0.12913054 0.05082231
-0.067892253 0.11463839 0.046152357
-0.057872951 0.10776749 0.045964304
-0.047968328 0.10118771 0.048446614
-0.03802222 0.094219774 0.050216775
-0.032209396 0.08807072 0.052137733
0.014088511 0.056186467 0.055026647
0.020803213 0.053039432 0.049369264
0.023269534 0.045714259 0.044749603
-0.088860989 0.14356205 0.045991622
-0.079936504 0.14178866 0.051930211
-0.06893307 0.13283443 0.048902903
-0.062067807 0.12472418 0.045572296
-0.050487339 0.11248329 0.043812413
-0.040933728 0.10975015 0.044864129
-0.03115803 0.10400414 0.049519733
-0.023723364 0.10051146 0.052286047
0.020813406 0.069155931 0.053956475
0.027296484 0.06329748 0.049128842
-0.082372755 0.15029001 0.043873776
-0.073340416 0.14786839 0.046363108
-0.067096889 0.14093462 0.043840859
-0.060498118 0.13249221 0.042473506
-0.032797635 0.1139929 0.043142665
-0.024111748 0.11344889 0.046627153
-0.014687002 0.10729992 0.050881382
-0.0051159263 0.10446739 0.052789178
0.021538615 0.088144034 0.055732485
0.02574724 0.079722375 0.052182663
0.031989753 0.073330253 0.047046892
-0.0665977 0.15173486 0.041800018
-0.064499736 0.15008277 0.041653965
-0.015963078 0.12070277 0.044743963
-0.0076821446 0.11693579 0.048266169
0.0021374226 0.11023098 0.050207064
0.013014138 0.10469115 0.053792324
0.022223234 0.096912235 0.053251263
0.030498207 0.089432061 0.048764512
0.034343302 0.081308573 0.045198224
-0.00078183413 0.12251016 0.045002978
0.008161366 0.11818019 0.04577557
0.018379927 0.111642 0.047192324
0.026554286 0.10441428 0.047077868
0.032271206 0.097903222 0.045841727
-0.034355938 0.038851053 0.056773145
-0.035971403 0.045434356 0.055156421
-0.029562354 0.043605417 0.059128623
-0.02014792 0.039650649 0.058472473
-0.010936439 0.038347274 0.055994038
-0.021192133 0.053106964 0.057390545
-0.013389409 0.04675135 0.057122331
-0.0080760717 0.040339649 0.056044225
-0.089337885 0.12019673 0.053568121
-0.082823068 0.11654189 0.05405141
-0.028700829 0.079320133 0.05644301
-0.023435593 0.072031528 0.058620621
-0.016196132 0.063973069 0.060560476
-0.0060509443 0.057104737 0.060787704
0.0033442378 0.052896321 0.058576953
-0.086854756 0.12882757 0.055719521
-0.077904671 0.12161803 0.057309303
-0.071717262 0.11784425 0.054978739
-0.027582288 0.087162465 0.059742939
-0.019008279 0.080569327 0.063440263
-0.0088338852 0.073739439 0.064383022
0.0010946989 0.066787899 0.063168533
0.0100348 0.060904562 0.058792155
-0.080961287 0.13674983 0.05533604
-0.073467374 0.12963596 0.055658463
-0.068835139 0.12321332 0.054392185
-0.021099508 0.096241355 0.059958067
-0.012040138 0.090519994 0.064163849
-0.0018845201 0.083666384 0.064572401
0.0077585578 0.076718211 0.062392887
0.015222907 0.070624679 0.058128115
-0.013450503 0.10161173 0.057455521
-0.0049414039 0.099589527 0.06008954
0.0051647425 0.093307704 0.061646145
0.014633417 0.086877316 0.059163999
0.019561231 0.080056101 0.057439517
0.0036314726 0.10230848 0.05568799
0.009632349 0.099331588 0.056814004
0.017684817 0.093108028 0.05645695
