# .PCD v0.7 - Point Cloud Data file format
VERSION 0.7
FIELDS x y z
SIZE 4 4 4
TYPE F F F
COUNT 1 1 1
WIDTH 1403
HEIGHT 1
VIEWPOINT 0 0 0 1 0 0 0
POINTS 1403
DATA ascii
0.57934821 0.077861995 0.0302884
0.56491804 0.040361129 0.0307632
0.65803564 0.10561577 0.0355841
0.65550256 0.11264046 0.026543399
0.54280758 0.075806335 0.024657
0.65583521 0.017451182 0.054141499
0.65678346 0.018251959 0.054184798
0.65768671 0.018999208 0.054124799
0.65853792 0.01969937 0.053943198
0.65930957 0.02029966 0.053605501
0.66007221 0.020891432 0.0532551
0.66084069 0.021492071 0.0529202
0.66163313 0.022128373 0.0526147
0.66239935 0.022723729 0.052267101
0.66312689 0.023275811 0.051858202
0.6639086 0.023903716 0.051513702
0.6646682 0.024497613 0.051160499
0.66542935 0.025099203 0.0508237
0.66619945 0.025696801 0.050498299
0.66698503 0.026326386 0.050162401
0.66775429 0.026927197 0.049845301
0.66854888 0.027564555 0.049552999
0.66930908 0.028160766 0.049206998
0.67010421 0.028799271 0.048905998
0.67087168 0.029401483 0.048585299
0.67167252 0.030040937 0.048301399
0.6724686 0.030674322 0.047988299
0.67322981 0.031270172 0.047654901
0.67403328 0.031914122 0.047384899
0.6747967 0.032508802 0.047028001
0.67562574 0.033180244 0.046762001
0.67643422 0.033833269 0.046539702
0.58599639 0.070498325 0.033548798
0.58742136 0.12808625 -0.016014799
0.58135736 0.1218202 -0.0108587
0.56918132 0.08459118 0.031192699
0.6654188 0.089720115 0.046503
0.64581037 0.10811779 0.0339587
0.68000233 0.091184936 -0.0157145
0.68322939 0.039383821 0.045186602
0.68412453 0.040127266 0.045086
0.68497646 0.040827453 0.0449613
0.68586928 0.041566841 0.044836201
0.68671787 0.04226112 0.044663802
0.68757302 0.042960435 0.044538502
0.68841189 0.043644801 0.044310801
0.68921268 0.044290517 0.044043802
0.68997371 0.04488311 0.0436952
0.69065887 0.045386489 0.043181401
0.6913467 0.045907848 0.0426566
0.69199044 0.046361804 0.0420468
0.69267112 0.046859585 0.041505899
0.69332993 0.047346383 0.040944099
0.69394404 0.04777725 0.040252
0.69451886 0.048163004 0.0394869
0.69505763 0.048499566 0.038635999
0.69552898 0.048779219 0.037664101
0.66303647 0.09609092 0.042097699
0.67396367 0.09908472 0.0345819
0.67587757 0.10191181 0.0286723
0.69719976 0.049652554 0.033316299
0.69766289 0.049936518 0.032346401
0.69820344 0.050214302 0.031417299
0.69876534 0.050601039 0.030650301
0.69936818 0.050982147 0.02991
0.59661049 0.032057531 -0.0190299
0.59036702 0.11767656 -0.00556617
0.58724409 0.13345052 -0.0204206
0.6583401 0.092702664 0.0460447
0.58022261 0.071593851 0.0365339
0.57847947 0.054725714 0.048268698
0.61479044 0.052925073 -0.023534801
0.6139946 0.052326605 -0.0233898
0.60276067 0.043976035 -0.0219739
0.60357416 0.044563115 -0.0219218
0.5931325 0.038446099 -0.018634999
0.58922517 0.035375528 -0.0163709
0.58999908 0.035965361 -0.016670801
0.59395593 0.039055996 -0.018835699
0.59476399 0.039653607 -0.0189413
0.60433525 0.046901822 -0.021811601
0.60514152 0.047493197 -0.021888901
0.61391467 0.055814784 -0.023046
0.57673651 0.11835913 -0.0169318
0.5700376 0.083434641 0.031205799
0.56944311 0.083011344 0.031927399
0.56297946 0.07835976 0.039751802
0.65027058 0.1097527 0.031758901
0.5845418 0.11157165 -8.5489201e-06
0.57792795 0.09754537 0.00483874
0.65958858 0.11116175 0.027471799
0.63233757 -0.0014007911 0.047144301
0.63329172 -0.00059486181 0.0471882
0.63414967 0.00011131167 0.0470712
0.6349175 0.00071922503 0.046781301
0.63568068 0.0013142657 0.0464256
0.63642979 0.0018914212 0.046006002
0.63718736 0.0024811272 0.0456407
0.63794619 0.0030740723 0.045275699
0.6387921 0.0037571713 0.045060001
0.63959962 0.004405044 0.044814602
0.64039654 0.0050353389 0.044502299
0.64115447 0.005634224 0.044153702
0.64191842 0.0062391739 0.043838501
0.64267343 0.0068251994 0.0434612
0.56639552 0.063214079 -0.0088923899
0.57674444 0.12577882 -0.0110873
0.57899988 0.12925678 -0.0142737
0.58418119 0.13302863 -0.019086801
0.57663745 0.1147186 -0.0048449198
0.57247776 0.11351096 -0.00019753999
0.64232415 0.081491724 0.0485145
0.65496933 0.018513869 0.053981502
0.65590066 0.019314021 0.054071199
0.65685093 0.020112686 0.054070201
0.65767539 0.020769909 0.053878199
0.65847212 0.021413183 0.053591002
0.65923828 0.022008542 0.0532372
0.66003716 0.022647044 0.052943502
0.66080207 0.023246404 0.052606799
0.66156554 0.023846122 0.052258901
0.66232729 0.024441825 0.0519008
0.66308349 0.025034111 0.051540598
0.66384 0.025622334 0.0511586
0.66459441 0.02620567 0.050781701
0.66535759 0.026812311 0.050452299
0.66611302 0.027407371 0.0500945
0.66691464 0.028045153 0.049812298
0.6677143 0.028683392 0.049533602
0.66848123 0.029278934 0.049190801
0.66927403 0.029914638 0.048885699
0.67003083 0.030510085 0.048531201
0.67079198 0.031107338 0.048170902
0.67159408 0.03173881 0.047881
0.67235392 0.032340683 0.0475525
0.67311865 0.032934088 0.047210999
0.6739102 0.033552721 0.046864901
0.55703902 0.091951884 -0.0325909
0.5829221 0.066599786 0.038947601
0.58414578 0.067414649 0.0375656
0.5785656 0.099823184 0.0040278998
0.57160962 0.11656992 -0.00032792299
0.58149076 0.067324921 0.039648201
0.58525181 0.068259023 0.036061201
0.57415479 0.12391093 -0.0068929498
0.58319086 0.05223044 0.037425
0.65770549 0.10863297 0.0324848
0.68321002 0.041129068 0.044867601
0.68410379 0.041873824 0.044783399
0.68495488 0.04256884 0.044628099
0.68584698 0.04330992 0.044518199
0.68670195 0.044012703 0.044414099
0.6875909 0.044741254 0.044263601
0.68839097 0.045383718 0.0440147
0.68911928 0.045945346 0.043618299
0.68986481 0.046525355 0.0432171
0.69054288 0.047023915 0.042684801
0.69121379 0.047517668 0.042134199
0.69188386 0.048013911 0.0415846
0.69255513 0.048504323 0.041021898
0.69322842 0.049013656 0.040488198
0.69382656 0.049444981 0.039836101
0.6944136 0.049811333 0.039016999
0.69489753 0.050123721 0.038110599
0.69540268 0.050419569 0.037174098
0.69584858 0.050697386 0.036192801
0.69637793 0.050986826 0.035262302
0.69683135 0.051269397 0.0342886
0.69729853 0.051502533 0.033245701
0.69777733 0.051836699 0.0323583
0.69831896 0.052121408 0.031436201
0.69886833 0.052452065 0.0305942
0.69944501 0.052892946 0.0298982
0.57620108 0.072151542 0.037577201
0.58122855 0.05265142 0.039022502
0.54483187 0.081233695 -0.017913699
0.56688118 0.067254111 0.047106799
0.68356985 0.099799648 0.014157
0.58389407 0.051094927 -0.0144399
0.58013707 0.040995847 -0.0122376
0.57821494 0.052081186 -0.0102762
0.57520854 0.11539488 -0.015753601
0.61879301 0.05591397 -0.024079399
0.61958677 0.056512274 -0.024212399
0.61799252 0.055316396 -0.0239607
0.61719459 0.054720618 -0.0239227
0.60438502 0.045143452 -0.0217389
0.6019457 0.043385044 -0.022046899
0.60113579 0.04279289 -0.022032101
0.60594481 0.048082747 -0.021924101
0.60272455 0.045714647 -0.0217872
0.56067401 0.03819111 0.018200601
0.5970183 0.043273855 -0.0210377
0.61073673 0.05168131 -0.0228038
0.67731065 0.099708818 0.030241599
0.56242919 0.077978492 0.0405383
0.58712804 0.074707389 0.027790699
0.57874632 0.073987179 0.035093501
0.57990599 0.12807955 -0.0142339
0.57925183 0.12760428 -0.0136486
0.58190107 0.12953274 -0.0159442
0.58716536 0.067822412 0.034375399
0.63726616 0.10666278 0.0332435
0.5654546 0.087224595 0.032602601
0.63316089 0.0010889359 0.046798501
0.63402021 0.0017649084 0.046567898
0.63478518 0.0023749825 0.046261098
0.6354996 0.0029260609 0.045823801
0.63621604 0.003469808 0.045366801
0.63696444 0.0040433519 0.04496
0.63777471 0.0046726018 0.044654999
0.63858038 0.005343968 0.044458199
0.63942343 0.0060155671 0.044221599
0.64013964 0.0065737367 0.0438121
0.64094108 0.0072041024 0.043506902
0.6796217 0.1038205 0.0101622
0.67875057 0.1030971 0.0221477
0.57952279 0.11683843 -0.0067000599
0.57962745 0.12971273 -0.0149194
0.58484083 0.13349926 -0.019662
0.57529634 0.11371953 -0.0037472099
0.57299721 0.10125209 0.0058607701
0.58398288 0.070821591 0.0349878
0.58422887 0.076148532 0.0292632
0.65493387 0.020274851 0.0537128
0.65587676 0.021084489 0.0537933
0.6567809 0.021815207 0.053661499
0.65758634 0.022471435 0.053459302
0.65835863 0.023085941 0.053141799
0.65915811 0.023716476 0.052831501
0.65992063 0.024314987 0.0524811
0.6606797 0.024906032 0.052118201
0.6614449 0.025509702 0.051776901
0.66215688 0.0260631 0.0513434
0.58551908 0.076991938 0.0262098
0.58625686 0.077440239 0.023928501
0.68192333 0.091001168 -0.0137667
0.56956452 0.031705104 0.023369599
0.58400118 0.077650532 0.026757799
0.58359683 0.077386454 0.0278379
0.57076228 0.082158938 0.0309288
0.56755435 0.093575798 0.0122178
0.67734152 0.098162837 0.032514401
0.57571435 0.058097359 0.051448099
0.59246182 0.12101308 -0.0090453904
0.58258009 0.12091505 -0.0101968
0.65193874 0.10764707 0.033686399
0.66678804 0.090721965 0.045432899
0.56876862 0.092721328 0.0128837
0.5788517 0.12180562 -0.0102811
0.57452047 0.11864519 -0.00573949
0.57310474 0.11764504 -0.0029353199
0.57543033 0.13950978 -0.0166294
0.66470295 0.089193463 0.046991501
0.55390763 0.042445429 0.0392849
0.575629 0.12495235 -0.0095957601
0.57636541 0.12366417 -0.0098259998
0.58669889 0.1275502 -0.0155577
0.68232203 0.042135905 0.044752602
0.68312359 0.042779706 0.044478498
0.68395877 0.043472167 0.044275202
0.684807 0.044168651 0.0441067
0.68569577 0.044910401 0.0439981
0.68658257 0.045643225 0.043876499
0.68742925 0.046330567 0.043692999
0.68820119 0.046940699 0.043390598
0.68895292 0.047521014 0.043000199
0.68966144 0.048055202 0.0425235
0.69036722 0.048591826 0.042052299
0.69102192 0.049075902 0.041489199
0.69167733 0.049541045 0.0408911
0.69235164 0.050011341 0.040348802
0.69298625 0.05049058 0.0396985
0.69361722 0.050952934 0.039075699
0.69421309 0.051351033 0.038342498
0.69478965 0.051736526 0.0375802
0.69534796 0.052116595 0.036803398
0.6959008 0.052497745 0.036026198
0.69642687 0.052786492 0.035096999
0.6969189 0.053071175 0.034139901
0.6973688 0.053402618 0.0332372
0.69783926 0.053636529 0.032196
0.69838816 0.053971052 0.031350698
0.69897139 0.054354981 0.030603001
0.58103466 0.073906898 0.034185801
0.58303291 0.07188908 0.0347775
0.56464899 0.072576582 0.043820798
0.56515157 0.072925679 0.042944498
0.57296747 0.11936852 -0.0033917299
0.66375357 0.096651949 0.041651901
0.58721834 0.046543658 -0.017217601
0.57624209 0.11060082 -0.0139882
0.70686001 0.060847946 0.0296022
0.59186697 0.028362829 -0.0166182
0.59029692 0.027137339 -0.015826499
0.6013791 0.03571026 -0.0207882
0.58742177 0.013112299 0.0142875
0.57454872 0.065532118 -0.0085548703
0.60699105 0.039891917 -0.021630701
0.58089095 0.041609108 -0.0126696
0.62037969 0.057115696 -0.024462501
0.62117958 0.057737358 -0.024731301
0.60353923 0.046298742 -0.021678099
0.60675001 0.048674293 -0.021914
0.60993695 0.051082682 -0.022667799
0.59244514 0.036081739 -0.017991001
0.67268032 0.095021233 0.0401542
0.64504665 0.10751595 0.034296799
0.56822538 0.094081849 0.0116824
0.57300478 0.063030943 0.0489587
0.57184255 0.062219903 0.050424699
0.58056635 0.12855686 -0.0148174
0.58257174 0.13002618 -0.0164984
0.57198375 0.11316073 0.00069363898
0.57142204 0.098233752 0.0084173502
0.58443117 0.13868354 -0.024483301
0.63710684 0.084506653 0.044052999
0.5833562 0.12693122 -0.0147167
0.63375086 0.0032953937 0.0458402
0.63456333 0.0039435551 0.045589902
0.63527626 0.0044793319 0.0451167
0.63599116 0.0050286241 0.044668101
0.58232325 0.064397112 0.0398601
0.58406931 0.052911956 0.0372761
0.56720042 0.088418871 0.0286413
0.56678772 0.088133872 0.0296453
0.64001256 0.0082236584 0.043277301
0.57354939 0.078891054 0.0313829
0.55211455 0.0427063 0.0202819
0.57879955 0.1162833 -0.0062690298
0.5802561 0.13017687 -0.0155519
0.56692678 0.062072288 0.0516087
0.58549672 0.13396095 -0.0202542
0.57352251 0.11243821 -0.00162934
0.57419908 0.10207212 0.0061411601
0.57584882 0.10335106 0.0056868801
0.68254811 0.1007532 0.003186
0.57461822 0.098796971 0.0073671099
0.58878213 0.070627406 0.0297787
0.65661013 0.023440268 0.053142801
0.65742022 0.024091745 0.0528933
0.65819597 0.024698615 0.052562401
0.65894645 0.025291871 0.0521871
0.67089933 0.106517 0.0267541
0.56338191 0.076900624 0.040739499
0.55405998 0.042553671 0.0402916
0.58722425 0.066113636 0.034728002
0.68462229 0.098851599 0.0111648
0.56173688 0.037865687 0.0133388
0.58213198 0.060626585 0.039910302
0.57445872 0.10049198 0.0068798
0.68374395 0.096275017 0.026153101
0.56951147 0.081257597 0.032242399
0.67602891 0.10263053 -0.0047936202
0.66014397 0.092399701 0.046133701
0.58281708 0.13933532 -0.024044201
0.66761112 0.1104579 0.018173
0.57139242 0.085402846 0.025416
0.57799727 0.082644261 0.00341268
0.56831467 0.092398956 0.0138449
0.58235717 0.12436609 -0.0127977
0.57835847 0.13978434 -0.020078599
0.57085264 0.030797984 0.0034131601
0.58731204 0.062612623 0.035336498
0.57595509 0.13977239 -0.017402399
0.57246834 0.11901454 -0.0025132799
0.56380308 0.068513334 0.048162501
0.56397527 0.086178258 0.035301499
0.58268708 0.068176821 0.038271099
0.6812982 0.043389272 0.0463477
0.68182802 0.043648273 0.0454216
0.6824646 0.044030279 0.044769499
0.68318963 0.044573233 0.044346102
0.68396467 0.045218159 0.044034399
0.68476135 0.045867819 0.043756999
0.68559736 0.046562228 0.0435597
0.68639445 0.047202297 0.043266501
0.68718529 0.047838207 0.042963199
0.68794209 0.048418302 0.0425837
0.68865693 0.048961654 0.042127501
0.68942004 0.049559355 0.041782402
0.69009757 0.050061729 0.041243698
0.69076657 0.050550628 0.0406841
0.69142491 0.051032551 0.040103801
0.6920808 0.051514864 0.039521299
0.69275069 0.052005194 0.038967699
0.69343436 0.052506953 0.038432501
0.69407517 0.052980699 0.037827
0.69470179 0.053421758 0.037179299
0.69530457 0.053858712 0.036500301
0.69589311 0.054247603 0.0357516
0.69642091 0.054582387 0.034892999
0.69690973 0.054867804 0.0339396
0.69737142 0.055100799 0.032894999
0.69787407 0.055436425 0.032020699
0.69845146 0.055822786 0.031263702
0.69911647 0.056310162 0.0307026
0.58360898 0.065327562 0.0386516
0.5726614 0.07472185 0.0356206
0.57194215 0.074185714 0.036076602
0.57885224 0.063589692 0.042162199
0.65406269 0.097645313 0.041710801
0.70500362 0.061343148 0.031387299
0.705863 0.062031053 0.0312341
0.70660156 0.062559627 0.0307997
0.7072686 0.063053057 0.030223999
0.70791298 0.063550875 0.0296361
0.7085318 0.063991584 0.028971801
0.70915741 0.064425573 0.028314799
0.70979589 0.064858817 0.027663199
0.71043843 0.065355919 0.027082801
0.71106565 0.065791503 0.026425401
0.71164066 0.066179819 0.025662599
0.71219343 0.066508785 0.024816699
0.71274483 0.066837832 0.0239661
0.71333909 0.067384392 0.0233055
0.71379548 0.067572124 0.022316201
0.71424752 0.067802869 0.021261699
0.71465278 0.068043806 0.020191099
0.57337147 0.11414547 -0.0021436301
0.56800699 0.037183966 0.0223625
0.6337713 0.078372583 0.043743901
0.56815153 0.089075297 0.0267072
0.57060242 0.061299123 0.051717099
0.58875835 0.12725915 -0.0151527
0.58324319 0.13051899 -0.017052
0.65472591 0.098149449 0.041162699
0.58902293 0.13294198 -0.0205328
0.57203734 0.098699369 0.0077968999
0.5850302 0.12451831 -0.0130587
0.56701678 0.075907461 0.037061501
0.6552965 0.098560289 0.040403299
0.63265687 0.0041719843 0.0453289
0.63342863 0.0047453325 0.044941202
0.6341939 0.0053248014 0.0445637
0.63495541 0.0059424527 0.044241302
0.65590692 0.099001333 0.039748199
0.58280593 0.12287634 -0.0117855
0.56803501 0.08722426 0.0286364
0.5802176 0.064601466 0.041089099
0.63902998 0.0091789626 0.042954501
0.65752983 0.10022617 0.039161202
0.56236136 0.081434667 0.038145799
0.56983131 0.098876528 0.0088786697
0.57807535 0.11574107 -0.0058187302
0.58289403 0.1320823 -0.017877201
0.58779645 0.13568369 -0.0231509
0.58727139 0.13526019 -0.022329301
0.57227689 0.093459405 0.0105827
0.55578643 0.092972592 -0.0376027
0.58497465 0.11004813 -0.00081178697
0.66579735 0.094887376 0.042541798
0.56327319 0.080332063 0.0382744
0.65829295 0.10080533 0.0387825
0.65905643 0.10136003 0.038387399
0.65977371 0.10190342 0.037955299
0.65787047 0.026168546 0.0516744
0.6604467 0.10242327 0.037434101
0.66110921 0.10291076 0.036871001
0.56413603 0.079186454 0.038295601
0.56212598 0.086578771 0.0352378
0.56642371 0.089636967 0.0287496
0.57053673 0.032209985 0.00239755
0.57289672 0.093898602 0.0099242302
0.57350653 0.09433423 0.00925072
0.57723635 0.12245894 -0.0098417997
0.5938437 0.12570673 -0.013967
0.67635775 0.10292754 -0.0038224601
0.57195842 0.1186552 -0.00164046
0.57013428 0.081710078 0.031588402
0.57766134 0.13745588 -0.0176247
0.5807749 0.13969576 -0.0226028
0.58958644 0.12969014 -0.0173751
0.58597648 0.12702286 -0.0150947
0.57544601 0.13763988 -0.0147357
0.57883811 0.140118 -0.020970499
0.58095437 0.14154308 -0.026054399
0.57262862 0.11729298 -0.0020413599
0.5735895 0.13448268 -0.0108227
0.67045075 0.10462871 0.029917801
0.66177177 0.10339093 0.036300201
0.66238093 0.10382238 0.035629701
0.66299528 0.10425887 0.034966599
0.68094045 0.044868253 0.0472035
0.68149358 0.04525974 0.046425201
0.68217444 0.045805968 0.045933001
0.68285406 0.046293903 0.045383699
0.68352026 0.046782386 0.044818401
0.68417341 0.047217518 0.044210799
0.6848864 0.047757655 0.043749001
0.68556648 0.048256688 0.043219499
0.68627006 0.048804112 0.0427473
0.68696958 0.049341876 0.0422564
0.6876815 0.049883831 0.0417872
0.6884231 0.050471481 0.041402001
0.68915558 0.05101984 0.040967699
0.68986011 0.051554084 0.0404859
0.69052523 0.052043382 0.039919
0.69120914 0.05256436 0.0394013
0.69193268 0.053109698 0.038959902
0.69265425 0.053654488 0.038509302
0.6933462 0.054186363 0.038011398
0.69401777 0.054677144 0.037457202
0.69466817 0.055163771 0.036874399
0.69529426 0.055604689 0.036225401
0.69588023 0.055994481 0.0354768
0.69639915 0.056327462 0.0346108
0.69689327 0.056613676 0.033661399
0.69738734 0.056898467 0.032711402
0.69793665 0.057231061 0.0318758
0.69856191 0.057724528 0.0312717
0.663571 0.10467835 0.034228101
0.57277161 0.06620755 0.0443555
0.57326579 0.066529483 0.0434644
0.57373965 0.066881195 0.042515099
0.66409421 0.10504737 0.033384498
0.66465151 0.10542881 0.0326127
0.70545387 0.063624129 0.032049801
0.70619822 0.064140692 0.0316879
0.70689905 0.064678811 0.031184301
0.70757651 0.065164223 0.0306384
0.70822662 0.065600485 0.0300085
0.70886052 0.066096231 0.029417001
0.70946586 0.066543736 0.028747899
0.71009302 0.066986144 0.028094901
0.71070999 0.067373604 0.027375899
0.71130437 0.06782113 0.026701801
0.71188158 0.068219118 0.025950599
0.71242797 0.068621263 0.025180601
0.71297741 0.068958782 0.024341499
0.7135362 0.069346368 0.023571599
0.71403146 0.069571696 0.022543199
0.71450388 0.06991718 0.0216552
0.67596829 0.10041956 0.031069599
0.58436036 0.069357894 0.035956699
0.56667507 0.086306721 0.031446502
0.58581328 0.12504771 -0.0134663
0.65357298 0.094013974 0.045065802
0.66113853 0.099629335 0.039376002
0.64164662 0.093073122 0.040821798
0.57786363 0.12292208 -0.0104749
0.58391362 0.13101596 -0.017602401
0.57151026 0.10550907 0.0041620298
0.57368731 0.099921577 0.0072472398
0.57285845 0.099298403 0.0075055198
0.65803111 0.084111728 0.050644901
0.66517812 0.10580274 0.0317678
0.63153225 0.0049563497 0.044651501
0.66573155 0.10617393 0.030986
0.66629291 0.10655458 0.0302164
0.66681963 0.10693356 0.029376101
0.6494894 0.10750531 0.034216899
0.57317108 0.080376364 0.0304759
0.57101345 0.071782969 0.038227402
0.57086027 0.076918766 0.033622101
0.66735387 0.10732419 0.028543901
0.66790515 0.10769506 0.027764499
0.58232325 0.066165939 0.039626699
0.57045287 0.09931574 0.0081951804
0.57735133 0.11522245 -0.00534483
0.57596338 0.11421032 -0.0043102
0.58607483 0.1344205 -0.020957701
0.67620045 0.10462907 -0.00081787101
0.56508827 0.062448472 0.051541001
0.66836601 0.10798912 0.026802
0.59165645 0.12399152 -0.0109737
0.58562434 0.11054115 -0.00139783
0.58430386 0.074514531 0.031462301
0.56022465 0.078141876 0.041640501
0.58311278 0.10497732 -0.00034422899
0.57475728 0.12250444 -0.0074052801
0.57192624 0.063961737 0.048508
0.67070735 0.10927858 0.0041643502
0.57144785 0.084397435 0.0284354
0.57731557 0.10258365 0.0049771699
0.57822657 0.050914112 0.0465657
0.5902766 0.11943901 -0.0059239399
0.58961105 0.11894686 -0.0053602098
0.58899605 0.11845678 -0.0047453102
0.5741362 0.094804093 0.0086364998
0.57171351 0.10384466 0.0047449102
0.5768981 0.13508064 -0.0152257
0.58011526 0.13739826 -0.0200739
0.58328545 0.13970402 -0.024990899
0.56069756 0.076757476 0.042767201
0.5781346 0.13773917 -0.018435899
0.65930068 0.10648671 0.0343033
0.58886564 0.12916155 -0.0169155
0.58525294 0.12649471 -0.0146335
0.58163452 0.12384108 -0.0123298
0.57817942 0.12130979 -0.0097271604
0.57401597 0.11828236 -0.0048727202
0.57921171 0.10031241 0.00343994
0.57983768 0.10075236 0.0027832801
0.58846468 0.11648976 -0.0034487001
0.67090029 0.10942987 0.0071648401
0.67923188 0.045442555 0.049251601
0.67985922 0.045883786 0.0485841
0.68045318 0.046329163 0.047894001
0.6811226 0.046876341 0.047392201
0.68175244 0.047313169 0.046739001
0.68241477 0.047800828 0.046176299
0.68309009 0.04828959 0.045619801
0.68374538 0.048779301 0.045047101
0.6844061 0.049209297 0.044418801
0.68506789 0.049761057 0.0439112
0.6857338 0.050195172 0.043304902
0.68636131 0.0506371 0.042659599
0.68698919 0.05108254 0.0420155
0.68766922 0.051662624 0.041533101
0.6883812 0.052202914 0.041071098
0.68910342 0.052703064 0.0405889
0.68979138 0.053238083 0.040090401
0.69045544 0.053726397 0.039523602
0.6911599 0.054264165 0.039046898
0.6919083 0.054853752 0.0386649
0.69261944 0.055393815 0.038201202
0.69329721 0.055885985 0.0376576
0.6939975 0.056423832 0.037172299
0.69467437 0.056915354 0.036625899
0.6953041 0.057352483 0.035971399
0.69583762 0.057736129 0.035174999
0.69635552 0.058071762 0.034313899
0.69688678 0.058360688 0.033388801
0.69745755 0.058746733 0.032628201
0.67599005 0.098870017 0.033266701
0.57951152 0.0640724 0.041583098
0.57603198 0.066803843 0.041613299
0.57669872 0.067295671 0.041055001
0.57741207 0.067813925 0.040568899
0.57405889 0.062060088 0.0493774
0.6661272 0.090241358 0.0460121
0.64088988 0.09251222 0.0412446
0.70565808 0.065511666 0.0322331
0.70641834 0.066095293 0.0318585
0.70711654 0.066630617 0.031365398
0.70779079 0.067118391 0.030816101
0.70842624 0.067559913 0.030172501
0.7090531 0.0680537 0.029573699
0.70966434 0.068447366 0.0288529
0.71025729 0.068893611 0.028173599
0.71084434 0.069288969 0.0274333
0.7114448 0.069734238 0.0267596
0.71202123 0.070081733 0.0259504
0.7125718 0.070482001 0.0251833
0.71312636 0.070831016 0.024354899
0.71366894 0.071231045 0.0235839
0.714203 0.071521752 0.0226619
0.71471393 0.071914986 0.021869199
0.59124959 0.11693712 -0.0084542399
0.63819611 0.10121617 -0.015379
0.57574064 0.1360555 -0.0139659
0.66275656 0.097542897 0.0412523
0.6620028 0.097002693 0.041667901
0.68182981 0.10199542 0.0091614099
0.58870608 0.12539795 -0.0132843
0.57752311 0.07310468 0.036426999
0.58595955 0.1324876 -0.019227101
0.58049059 0.13583417 -0.0192059
0.67190617 0.10840178 0.016155001
0.67007601 0.093134038 0.042541001
0.65741915 0.10513575 0.036206301
0.63018632 0.005438637 0.043439399
0.68233299 0.098727085 -0.00280325
0.66462088 0.11162645 0.0041668201
0.64912277 0.10555664 0.035637598
0.64835435 0.10502307 0.036072802
0.57311386 0.088658467 0.012527
0.57373381 0.080776572 0.029705601
0.57423067 0.081118971 0.028819401
0.56738567 0.07099387 0.042110398
0.57778442 0.06984216 0.039219402
0.5628103 0.074785754 0.0435296
0.56309146 0.081984907 0.0377209
0.57099181 0.099693708 0.0073928498
0.57156467 0.10011487 0.0066744899
0.57463968 0.11324616 -0.0031645701
0.588292 0.13600791 -0.0238578
0.67942965 0.10185974 0.024164099
0.54977781 0.047667257 0.0142561
0.5759235 0.13437131 -0.0134576
0.58247149 0.11718233 -0.00647025
0.57375711 0.11078048 -0.00102436
0.57875085 0.10732225 0.00367693
0.57952303 0.10788701 0.00328753
0.58351988 0.13255434 -0.0185048
0.58325946 0.11773378 -0.00684922
0.57227451 0.10423617 0.0039466899
0.57583046 0.10704468 0.00182669
0.58382833 0.11287034 0.000270855
0.58081245 0.080908485 0.00441971
0.5447439 0.087964483 -0.0359639
0.58492792 0.13904323 -0.025358099
0.57527947 0.1083279 0.00045046501
0.57098508 0.10513248 0.0049966499
0.57390046 0.13285325 -0.0100979
0.57741475 0.13544984 -0.0160858
0.58067727 0.13780782 -0.020834301
0.68058252 0.10281145 0.0131657
0.57473427 0.1353033 -0.0122978
0.57868344 0.13819599 -0.019301601
0.57831097 0.082880795 0.0044192802
0.58182782 0.11332287 -0.00164375
0.57443857 0.13325785 -0.01087
0.5727365 0.095599234 0.0094480198
0.57402408 0.096529752 0.00822921
0.57663608 0.09841387 0.0058472198
0.5650124 0.08690954 0.0336366
0.56453997 0.086592257 0.034548599
0.66806513 0.098155342 0.039212901
0.57231045 0.12073783 -0.00297212
0.67872679 0.046969503 0.049970001
0.67941719 0.047512144 0.049483199
0.68005699 0.047950901 0.048838802
0.68068546 0.048384786 0.048183799
0.68130249 0.048824653 0.047519501
0.68193066 0.049261305 0.046866499
0.68259436 0.049748324 0.046301398
0.68329227 0.050291713 0.045823701
0.68400341 0.050764769 0.045310799
0.68473756 0.051348954 0.044925299
0.68550456 0.051885188 0.044474501
0.68613285 0.052454773 0.0439573
0.68672121 0.052901395 0.043276399
0.68727547 0.053229421 0.042433999
0.68790478 0.053665034 0.041777901
0.68857658 0.054207757 0.041271899
0.68924975 0.054695994 0.040715799
0.68984658 0.055081997 0.039976198
0.69045609 0.055518895 0.039296899
0.69120342 0.056108713 0.0389033
0.69194323 0.056699511 0.038520999
0.6926291 0.057191253 0.037988499
0.69333112 0.057728983 0.037519101
0.69406408 0.058269672 0.037084099
0.69473648 0.058760323 0.0365295
0.69531912 0.05914814 0.0357766
0.69584328 0.05948136 0.034913599
0.6963768 0.059820544 0.034058899
0.6969285 0.060157843 0.033218801
0.69751585 0.060594238 0.032527901
0.58028698 0.059340481 0.041992001
0.6585744 0.097741649 0.041810598
0.57504028 0.062713787 0.047596399
0.57456517 0.062404446 0.048500001
0.57685769 0.062234506 0.0457647
0.55017644 0.046288185 0.016257999
0.57667524 0.096620373 0.0061037098
0.65055436 0.10662149 0.034711398
0.70580566 0.067422435 0.032260899
0.70656586 0.068003058 0.031900302
0.7072407 0.068494104 0.031354401
0.70789474 0.068982013 0.030779
0.70853484 0.069425665 0.0301456
0.70914865 0.069867678 0.029482801
0.70973706 0.070311993 0.0287949
0.71033347 0.070756055 0.028118599
0.71095872 0.071153224 0.0274131
0.71155316 0.071549401 0.026678501
0.71213567 0.071945406 0.025932601
0.71268624 0.072297491 0.025099499
0.71324533 0.072696626 0.0243391
0.7137875 0.07309486 0.0235647
0.71433437 0.073446818 0.022733901
0.71487159 0.073798448 0.021892199
0.57957864 0.053656586 0.045148998
0.67604297 0.10452528 0.0231563
0.5792802 0.14045277 -0.021988399
0.58841139 0.13248035 -0.019882301
0.66945243 0.11011214 0.0072109401
0.57207656 0.041334718 0.0349508
0.55212599 0.042713366 0.0192827
0.58357096 0.058018237 0.037561599
0.57325649 0.090563051 0.0110054
0.58844584 0.13430636 -0.0217772
0.54497433 0.10231578 -0.060495701
0.59191608 0.11882304 -0.0080278898
0.57561111 0.11944129 -0.0072967
0.57400256 0.026379991 0.00141653
0.58113676 0.068801947 0.038738798
0.5673635 0.065864161 0.048280701
0.65918833 0.098141976 0.041103698
0.55018383 0.098598987 -0.043590698
0.58331126 0.10701763 -8.72409e-05
0.6709044 0.098565608 0.037622701
0.67029941 0.098146692 0.038299698
0.67044967 0.095038623 0.041083101
0.58565062 0.12311621 -0.0117812
0.56131905 0.064924955 0.051005799
0.5622285 0.074358076 0.0442717
0.56168616 0.08092314 0.0386771
0.56102896 0.080453046 0.0392721
0.57227814 0.10066659 0.0062346901
0.57304406 0.11209552 -0.00072918599
0.56425434 0.037898742 0.0133403
0.67969406 0.10206693 0.023153801
0.57122469 0.061768509 0.051084898
0.57694519 0.12959088 -0.0128784
0.58666033 0.1366518 -0.0236196
0.5909223 0.11811834 -0.0063016498
0.57744467 0.054048046 0.049991
0.58641696 0.11831342 -0.0061550001
0.58091092 0.11424015 -0.00376774
0.57407582 0.10919379 -0.000243841
0.56413376 0.072229423 0.044643801
0.57478821 0.10969651 -0.00074380997
0.58268863 0.13561161 -0.020377699
0.58107412 0.13626552 -0.0199393
0.58532447 0.13934368 -0.0264173
0.5745703 0.10775579 0.00087141001
0.57912183 0.098428823 0.00347523
0.58712095 0.11889165 -0.0065780198
0.57664371 0.10209922 0.0055398201
0.59258938 0.1200168 -0.0109161
0.67728776 0.10554226 0.0121603
0.57526302 0.13568376 -0.0130948
0.56803066 0.1211586 -0.0109785
0.54564917 0.05998867 0.0251846
0.57249177 0.091808394 0.0111539
0.57573766 0.11221944 -0.00275159
0.64066684 0.10758716 0.032796599
0.65765744 0.084939599 -0.025102099
0.67851311 0.10293446 0.023168599
0.68433309 0.098608322 0.016163301
0.64017397 0.09874101 0.038664099
0.55991018 0.070916057 0.047438402
0.67759544 0.047991257 0.0512903
0.6782974 0.048534364 0.0508135
0.6789462 0.048968181 0.050187498
0.67956543 0.049408831 0.0495237
0.68018287 0.049846549 0.0488584
0.68078738 0.050286241 0.048182301
0.68140501 0.050722715 0.047517601
0.68209279 0.051206492 0.046979502
0.68285567 0.051795717 0.046620701
0.68366224 0.052434281 0.046357501
0.68448228 0.053068724 0.046107098
0.68525767 0.053713672 0.045827001
0.68587929 0.054164182 0.045141701
0.68643117 0.054554924 0.044364002
0.6869505 0.05489514 0.043498199
0.68757218 0.055330619 0.042837601
0.68815923 0.055715725 0.0420858
0.68874288 0.056156218 0.041392401
0.68926227 0.05649491 0.040517401
0.68993765 0.05698251 0.039962899
0.69069821 0.057517909 0.039549999
0.69139421 0.058112569 0.0391174
0.6919862 0.058556892 0.038409799
0.69274354 0.059089437 0.037985299
0.69349575 0.059679702 0.037619099
0.69417638 0.060167409 0.037091099
0.69476336 0.060554959 0.0363454
0.69530743 0.060892537 0.035499901
0.69585121 0.061229885 0.034653202
0.69640976 0.061661892 0.033946302
0.69697565 0.062003322 0.033112101
0.69754201 0.062389709 0.032336399
0.65982747 0.11013266 0.0291688
0.56567943 0.075012468 0.0400104
0.57598048 0.061656509 0.0478095
0.57641697 0.061943974 0.046822399
0.54682517 0.059137318 0.025193701
0.58490348 0.064491808 0.037681799
0.57002175 0.088224009 0.0234078
0.57100523 0.035755485 -0.00163012
0.70587748 0.069236726 0.0321398
0.70663637 0.069816776 0.031778298
0.70730841 0.070306905 0.0312359
0.70794678 0.070753045 0.030602699
0.70856613 0.071195841 0.0299433
0.709176 0.071682066 0.029319299
0.70981938 0.072128497 0.028690301
0.7104826 0.072617799 0.0281258
0.71112233 0.07306008 0.027488699
0.71173471 0.073503539 0.0268245
0.71230602 0.073901527 0.026073501
0.71284622 0.074253246 0.025238199
0.71339875 0.074605599 0.0244106
0.71393263 0.07500422 0.023633599
0.71444786 0.075309858 0.022715099
0.71493876 0.075617693 0.0217798
0.67340386 0.10044522 -0.0097952196
0.58043021 0.073478863 0.034867398
0.58619148 0.12899117 -0.016682001
0.57982099 0.073046125 0.035542801
0.66784412 0.10443075 0.031987298
0.57244515 0.062637918 0.049733002
0.57606483 0.086870551 0.0053986302
0.63489228 0.07764443 0.044510599
0.58656889 0.067407578 0.0350569
0.55505979 0.041423462 0.0113064
0.59293985 0.13189912 -0.0217386
0.5781371 0.094094165 0.0039004299
0.58876544 0.11303098 -0.00518035
0.56561565 0.040304333 0.00326083
0.5893389 0.072736457 0.026931901
0.62992847 0.0085785575 0.038873699
0.57599729 0.12155746 -0.0085516898
0.58399123 0.10750178 -0.00063820201
0.58459198 0.10795058 -0.001314
0.56977117 0.031706892 0.00542391
0.5823459 0.049762458 0.037796699
0.56204313 0.065478235 0.050576702
0.56276417 0.066003345 0.050096299
0.65736616 0.083608717 0.051190499
0.65790802 0.097219191 0.042341899
0.57721478 0.052049167 0.049737498
0.57508475 0.10275514 0.0060179401
0.57160938 0.092979357 0.0111503
0.67997414 0.10229598 0.0211547
0.57229114 0.12620947 -0.0053417799
0.57752448 0.13001916 -0.0135831
0.58495641 0.13542247 -0.0214028
0.67306489 0.10201164 -0.0088053001
0.57510221 0.12461039 -0.0086866803
0.57674336 0.13129337 -0.0133919
0.5832907 0.13604783 -0.0210547
0.67119664 0.10039224 -0.0118335
0.5734638 0.10874046 0.00041391599
0.57457966 0.13155074 -0.0104229
0.5781945 0.13417709 -0.0162801
0.58167136 0.13669448 -0.0206255
0.5876075 0.11739478 -0.0037690301
0.58282351 0.13752295 -0.0220777
0.57478464 0.095257878 0.0080155497
0.58085316 0.099725045 0.00133662
0.57952046 0.12229276 -0.0108444
0.58667648 0.13484898 -0.021638701
0.57438242 0.057123471 0.052541099
0.57955098 0.1369908 -0.0193127
0.59168476 0.11807653 -0.0097523201
0.57366848 0.092638627 0.0097260801
0.55497605 0.094340496 -0.036594499
0.57732165 0.07981348 0.027812
0.67452633 0.10105345 0.031645302
0.57144177 0.024808992 0.01542
0.5645923 0.10976821 -0.0069092498
0.57206702 0.095106632 0.0100027
0.68636841 0.0966518 0.0061834902
0.62327671 0.057726089 -0.0286003
0.66912305 0.10796186 -0.00082855002
0.677764 0.049937923 0.0514016
0.67838866 0.050377149 0.050750099
0.67900038 0.050813556 0.0500797
0.67962348 0.051252443 0.049422499
0.68021584 0.051640794 0.048682299
0.68087661 0.052129 0.048111301
0.68161082 0.052724399 0.0477167
0.68242407 0.053365652 0.047456
0.683263 0.053980622 0.04724
0.6841104 0.054718044 0.0470681
0.68482131 0.055195503 0.046560001
0.68546271 0.055637296 0.045923401
0.68602866 0.056085177 0.0452157
0.68655843 0.0564848 0.0444334
0.68712854 0.056836583 0.043621399
0.68767941 0.057224706 0.042839799
0.68823171 0.057614326 0.042057499
0.68881822 0.058002248 0.041303299
0.68953103 0.05848936 0.0407837
0.69023722 0.059026424 0.040315501
0.69088662 0.0595195 0.039734099
0.69153321 0.060009576 0.039147701
0.69226038 0.060556062 0.0386956
0.6929695 0.061086938 0.038234599
0.69363356 0.061576113 0.037671302
0.69422686 0.061962172 0.036931898
0.6947878 0.062347196 0.036160499
0.69534212 0.062687159 0.0353209
0.69588923 0.063072801 0.0345417
0.69643402 0.063409403 0.033693999
0.69697785 0.063748389 0.0328505
0.69754976 0.064137831 0.032090899
0.64652717 0.10868309 0.033527799
0.66156328 0.09343572 0.045154501
0.676148 0.10640956 0.00716752
0.68201363 0.098445974 -0.00378785
0.5836907 0.063614376 0.039024599
0.58560103 0.063212506 0.037391901
0.68615043 0.096466601 0.0041942098
0.57113755 0.085201651 0.027404601
0.70591938 0.071002498 0.031954501
0.70663011 0.07154163 0.0314992
0.70730722 0.072031826 0.030957401
0.70794189 0.072514705 0.030348601
0.70858943 0.073001623 0.0297623
0.70927721 0.073498227 0.0292331
0.70996016 0.073988855 0.0286923
0.71062052 0.074476406 0.028124699
0.71124494 0.074876934 0.027420901
0.71182823 0.075319901 0.026730901
0.71236092 0.075673044 0.0258897
0.71288514 0.076022863 0.0250409
0.71343362 0.076380357 0.024211001
0.71394646 0.076728828 0.0233551
0.71443403 0.077073202 0.0224893
0.7149561 0.077342615 0.0213286
0.5791977 0.11127724 -0.00122654
0.57385266 0.10722326 0.00133569
0.58278352 0.057368252 0.037854899
0.55935419 0.075756699 0.043870401
0.65980977 0.093774877 0.045147698
0.56718618 0.086663187 0.030633301
0.64765358 0.10784389 0.0341276
0.55590588 0.04210617 0.028299
0.67961013 0.10380767 0.011159
0.62732804 0.007939741 0.036963399
0.65083385 0.11018046 0.0310154
0.58673239 0.062219899 0.036091
0.59232634 0.12628168 -0.0135102
0.59096533 0.12525456 -0.0124907
0.5773164 0.097102292 0.0055066198
0.6413511 0.10132794 0.037014801
0.56284803 0.087113231 0.034777202
0.57695663 0.1113313 -0.0020792901
0.56968033 0.026876491 0.0144056
0.67778498 0.10001578 0.0292858
0.59015983 0.133679 -0.021880301
0.56063879 0.071463957 0.0469958
0.57661116 0.10393462 0.0053264298
0.57997161 0.11185805 -0.00157639
0.63291574 0.079407334 0.0436498
0.57812828 0.13045661 -0.0142605
0.57166839 0.060351729 0.0521552
0.54891109 0.085712895 -0.0038248701
0.58124471 0.13822876 -0.021586001
0.66797626 0.11071572 0.0111647
0.588305 0.075454973 0.0245216
0.58119452 0.054519132 0.0406208
0.58123523 0.070587896 0.0368606
0.57509285 0.13193595 -0.0112302
0.6678552 0.10283313 0.034179501
0.58826774 0.11789423 -0.0043243798
0.56727546 0.090222418 0.026685599
0.67328912 0.095447868 0.039480198
0.58181226 0.07101211 0.0361236
0.56940597 0.096735626 0.0100543
0.57829994 0.11774845 -0.0073529501
0.586474 0.12559576 -0.0139614
0.63506627 0.081109457 0.043975402
0.5909164 0.13071454 -0.018458599
0.63889217 0.096110113 0.0402142
0.57730752 0.095261499 0.0056688101
0.59233195 0.037830975 -0.018370099
0.58247155 0.08124122 0.0120125
0.54482377 0.059327174 0.0161786
0.57785565 0.13941407 -0.019210899
0.66943616 0.10713993 0.027312299
0.57330132 0.12144415 -0.0047430401
0.56959772 0.064035073 0.0493479
0.58350503 0.06702207 0.038247801
0.67646223 0.050736818 0.052327
0.67717212 0.051268641 0.051858898
0.67779982 0.051715322 0.051219199
0.67839706 0.052119084 0.050493501
0.67899811 0.052558109 0.049814701
0.67962074 0.052996285 0.049155299
0.68028224 0.053483438 0.048587698
0.68104333 0.054069012 0.0482217
0.68193763 0.054784756 0.048122801
0.68282312 0.055503897 0.0480114
0.68359381 0.056080639 0.047657002
0.68429917 0.056615613 0.047180898
0.68490171 0.057017673 0.046460401
0.6854856 0.057458922 0.045765601
0.68603265 0.057811633 0.044937301
0.68656361 0.058204837 0.044150401
0.68711376 0.058560651 0.043323599
0.68769068 0.059006002 0.042625099
0.6883859 0.059449214 0.042038601
0.68908155 0.059985518 0.041554
0.68974924 0.060472835 0.040991802
0.69036347 0.060965829 0.040370502
0.69105721 0.061457615 0.039837301
0.69176388 0.061987866 0.039362799
0.69244581 0.062475793 0.038821001
0.69308728 0.062917501 0.038183399
0.69368768 0.063360132 0.037508499
0.69425398 0.063753404 0.036748301
0.69481391 0.064141028 0.035978202
0.69537026 0.064479239 0.035140298
0.69589317 0.064816304 0.034276798
0.69642109 0.065152362 0.033416498
0.69696152 0.065492101 0.032568701
0.69751734 0.065877289 0.031784501
0.65827733 0.10905215 0.031739902
0.58430475 0.064055562 0.038362801
0.6836108 0.099838547 0.0131633
0.58300883 0.063125148 0.0395668
0.58225048 0.062542021 0.039934199
0.68618327 0.096504927 0.016167
0.65709352 0.10821058 0.0331675
0.56550151 0.069723845 0.045861401
0.70592904 0.072761409 0.031711001
0.70660496 0.073257305 0.03118
0.70725131 0.073713206 0.030576
0.70793307 0.074238673 0.0300563
0.70864314 0.074773982 0.029581999
0.7093485 0.075270146 0.0290848
0.7100293 0.075799853 0.0285725
0.71064973 0.076207519 0.027876901
0.71124679 0.076614097 0.0271399
0.7117815 0.077001348 0.026350301
0.7122854 0.077343583 0.0254886
0.71282583 0.077676937 0.024595199
0.71334338 0.078050211 0.0238011
0.7138505 0.07836552 0.022877701
0.7143209 0.078668721 0.0219335
0.67544597 0.10163631 0.0297176
0.67499542 0.10135902 0.030688601
0.57721913 0.10614267 0.0043744901
0.6393618 0.10660686 0.033906501
0.64763862 0.10445115 0.0364777
0.54873377 0.048641667 0.018244101
0.58430791 0.12397257 -0.0126147
0.58181369 0.1386075 -0.022308299
0.68535507 0.097632729 0.0141649
0.67905879 0.10336814 0.0191615
0.60051894 0.0097750872 0.0145125
0.59020019 0.12468129 -0.0121335
0.58133352 0.11123449 -0.0134031
0.58897316 0.13108388 -0.018659201
0.66199964 0.1084167 0.030266101
0.56918317 0.086315617 0.029184001
0.63818753 0.10400712 0.035576101
0.57858884 0.10166207 0.00387723
0.56211883 0.083034724 0.037476901
0.57731473 0.10441118 0.0047798199
0.58771908 0.068229631 0.033597901
0.59090042 0.12344968 -0.0105798
0.58161944 0.11662506 -0.0061634602
0.5732137 0.11038817 -0.000238726
0.58884263 0.069019966 0.032055002
0.56590492 0.08752583 0.031678401
0.57728547 0.13168724 -0.0141782
0.58444816 0.1368801 -0.0225027
0.67896593 0.10328992 0.0201595
0.57559103 0.13229668 -0.0121058
0.5834201 0.070420109 0.035753299
0.58527327 0.113956 -0.000620301
0.66475224 0.095750645 0.042057801
0.67140383 0.094105795 0.0413986
0.56650794 0.072123729 0.0420793
0.56779379 0.07297641 0.038954601
0.57436019 0.11487125 -0.0038553399
0.57557547 0.11575049 -0.0052027302
0.58793175 0.075214684 0.025692699
0.53382355 0.10080497 -0.053008702
0.64965355 0.10929574 0.0324132
0.58468056 0.076453209 0.0282843
0.58634198 0.069006592 0.034437802
0.58512682 0.076745294 0.027299
0.56763887 0.081684425 0.033890799
0.58052814 0.12487278 -0.0127378
0.56823158 0.07498911 0.035912599
0.58420289 0.072723038 0.033337601
0.58531499 0.073505074 0.031787399
0.58579564 0.073825866 0.0308899
0.58589375 0.077234507 0.025036201
0.67577523 0.051973488 0.052579999
0.67649245 0.052503143 0.052128401
0.67712373 0.052953489 0.051494699
0.67774069 0.053397294 0.050829899
0.67835236 0.0538355 0.0501629
0.67895699 0.054245025 0.049459901
0.67965502 0.054772571 0.0489701
0.68045253 0.055397697 0.048679899
0.68134707 0.056111176 0.0485803
0.68220675 0.056783721 0.0484166
0.6829887 0.057370499 0.048072498
0.68366462 0.057896815 0.047540601
0.68428242 0.058339268 0.0468827
0.6848709 0.05874284 0.046146899
0.68542129 0.059134908 0.0453711
0.68596548 0.059528675 0.0445932
0.68652105 0.059927505 0.043820702
0.68718022 0.060418673 0.043248199
0.68790138 0.060911123 0.042743701
0.68857092 0.061355047 0.042139299
0.68917096 0.061802253 0.0414619
0.68980807 0.062288612 0.040863499
0.69049299 0.062778927 0.040322501
0.69118911 0.063313141 0.039835099
0.69187689 0.063847683 0.039334301
0.69254965 0.064335622 0.038782999
0.69319034 0.064778835 0.038151599
0.69375098 0.06522017 0.0374441
0.69429469 0.065571196 0.036618099
0.69484705 0.06592679 0.035792802
0.6953662 0.066224225 0.034865901
0.69584584 0.066553682 0.033975501
0.69636631 0.066846669 0.033044901
0.6969018 0.067186624 0.032200001
0.69749963 0.06761913 0.0314909
0.68249619 0.091492191 -0.0127653
0.55838931 0.08902204 -0.032597601
0.57625413 0.14048409 -0.0186026
0.67398304 0.097513288 0.036811698
0.57933664 0.13500069 -0.0177524
0.56233883 0.041976616 0.046076901
0.63801652 0.083453164 0.0441727
0.58803821 0.071886629 0.0299918
0.70581484 0.074367993 0.0312254
0.70650798 0.07489273 0.030711601
0.70721209 0.075422242 0.030228401
0.70794177 0.075964965 0.0297952
0.70867157 0.076506943 0.029357901
0.70936388 0.077033177 0.0288563
0.70999634 0.077482186 0.028214799
0.71058637 0.077886015 0.0274783
0.71112442 0.078244448 0.026639599
0.71162099 0.078586549 0.025768399
0.71213746 0.078905299 0.0248562
0.71265328 0.07925301 0.0240006
0.71317273 0.079603083 0.0231489
0.713714 0.079929948 0.0222343
0.66721642 0.095942341 0.041592699
0.58656514 0.11305036 -0.00165461
0.57308549 0.09223111 0.0104667
0.63571322 0.079887331 0.043808099
0.57806355 0.061343048 0.0447428
0.59019387 0.12654813 -0.0140569
0.55292898 0.096667722 -0.053581499
0.57294333 0.061273076 0.050920099
0.57691646 0.11674329 -0.0063090902
0.58160627 0.063830473 0.040295798
0.57351214 0.12527588 -0.0064786202
0.58788013 0.12295118 -0.011068
0.58753061 0.074959077 0.026776001
0.5789488 0.094807528 0.000366775
0.56874907 0.08602497 0.030172801
0.5798986 0.10263711 0.0027217399
0.57227814 0.089888051 0.0128405
0.56492895 0.085109763 0.035512298
0.586281 0.11097129 -0.0020222999
0.5869056 0.11147947 -0.00260696
0.58748996 0.11186572 -0.0033693099
0.58219928 0.13159856 -0.017347099
0.57019591 0.10091393 0.0075060599
0.59286302 0.12493493 -0.012311
0.64119381 0.09783303 0.039091099
0.57258731 0.10629036 0.00257136
0.58386064 0.13647673 -0.0217984
0.58273846 0.076806061 0.0298847
0.57609016 0.13265806 -0.0129798
0.56480646 0.079673558 0.037741501
0.58454996 0.11342924 -0.00016100401
0.67639977 0.10069645 0.0300286
0.5673905 0.07271181 0.040037699
0.56695396 0.072421849 0.041094899
0.56821287 0.073251233 0.037953898
0.57059968 0.074970499 0.0351771
0.57136774 0.075505063 0.0347693
0.57341635 0.077016935 0.033188801
0.5740335 0.077487551 0.032548301
0.57464266 0.077926442 0.0318764
0.58109492 0.075687364 0.0322407
0.57370573 0.11622018 -0.00349456
0.64836949 0.10835414 0.0336347
0.66804701 0.1107177 0.0091662202
0.58169121 0.076089695 0.031541701
0.58478177 0.073127545 0.032631502
0.58447254 0.12595738 -0.0142312
0.58147675 0.13473362 -0.0190282
0.57548416 0.071630649 0.0380532
0.57476568 0.071106195 0.0385262
0.67491162 0.053022422 0.052477799
0.67565942 0.053592775 0.052080099
0.67630726 0.054057393 0.0514859
0.67693418 0.05452095 0.050854102
0.67756999 0.054965787 0.0502255
0.67824209 0.05546958 0.049665399
0.6789605 0.056005858 0.0492073
0.67976415 0.056631427 0.048922502
0.68066275 0.057348207 0.048836101
0.68152374 0.058020335 0.048679899
0.68229002 0.058604147 0.048316501
0.68299085 0.05913569 0.047821399
0.68361443 0.059580732 0.047167599
0.68420827 0.059984468 0.046436299
0.68478364 0.060383953 0.045685198
0.68532914 0.06077214 0.044902701
0.68592572 0.061211511 0.0442192
0.6866408 0.061747238 0.043747
0.68735784 0.06224449 0.0432503
0.68799764 0.062729709 0.042655598
0.68859822 0.063169748 0.041975901
0.68920034 0.063612312 0.041296501
0.68988979 0.06410592 0.0407589
0.69058681 0.064636201 0.040271599
0.69127333 0.065127194 0.039734401
0.6919626 0.065620407 0.039204601
0.69262558 0.066108175 0.038628999
0.69323444 0.066550761 0.037960101
0.69376761 0.066944554 0.0371782
0.69432706 0.067301825 0.0363582
0.69485551 0.067655489 0.0355158
0.695292 0.067912161 0.034473699
0.69576299 0.068197668 0.033511199
0.69628286 0.068531856 0.032644399
0.6968329 0.068880662 0.0318029
0.56457222 0.070801452 0.045721199
0.56508982 0.071162626 0.044854298
0.57553428 0.061370656 0.048737898
0.5750196 0.061016466 0.049605899
0.574503 0.060657203 0.050466299
0.57393962 0.060259033 0.0512252
0.56558496 0.071501374 0.043965701
0.56605208 0.071818493 0.042995598
0.58107883 0.1016331 0.0014574
0.70573401 0.076026186 0.030769801
0.70646405 0.07657709 0.030355001
0.70720893 0.077150047 0.029952001
0.70792735 0.077687457 0.029499199
0.70861745 0.078188479 0.02898
0.70926702 0.078667492 0.0283843
0.70986259 0.079077542 0.027656799
0.71041536 0.079466566 0.0268835
0.71091044 0.079779774 0.025955601
0.71141547 0.08009626 0.0250386
0.71192491 0.080441184 0.024171
0.71248287 0.080835059 0.0234109
0.71300864 0.08118578 0.022564201
0.71344757 0.081452534 0.0215357
0.67348647 0.09877006 0.0355184
0.67107487 0.095500894 0.040444899
0.57192475 0.091410011 0.0119087
0.57770926 0.061120242 0.045859199
0.5787518 0.13458072 -0.017048201
0.59341341 0.12532614 -0.0130929
0.57695496 0.10951312 -0.000113952
0.57751179 0.12082346 -0.0091643101
0.67953956 0.10376315 0.0121619
0.57452571 0.1259962 -0.0082188603
0.58702826 0.12238542 -0.0107679
0.58631533 0.12180935 -0.0103486
0.56992447 0.074455231 0.0357094
0.56821406 0.085653529 0.030967001
0.57493353 0.091748111 0.0086911796
0.66863829 0.098567352 0.038476098
0.5894537 0.062388685 0.034109
0.67145586 0.10371622 0.0303226
0.56585604 0.063008778 0.051141601
0.57922274 0.053467248 0.046332002
0.56859374 0.084164277 0.0319256
0.57080281 0.10134993 0.0068328101
0.58721191 0.11353139 -0.00224812
0.57636225 0.079143636 0.029658901
0.6596697 0.096929282 0.042402901
0.58499902 0.13728033 -0.023274001
0.63925481 0.09299048 0.0415028
0.56911343 0.039425381 0.00029556401
0.57189167 0.1076069 0.0028749399
0.58000737 0.10997926 0.0020832401
0.57133842 0.063580394 0.049226299
0.56559008 0.078470342 0.037624799
0.5701381 0.076378018 0.034079202
0.57144368 0.068675324 0.041347299
0.57093394 0.068308666 0.042211302
0.57043087 0.067969114 0.043092199
0.6545921 0.10796794 0.0335472
0.56675494 0.065431908 0.048967399
0.5661419 0.064998865 0.049648099
0.56551486 0.064518571 0.050275099
0.58578312 0.068615369 0.035210501
0.57184327 0.096748732 0.0093960296
0.56401312 0.070407614 0.046495602
0.65517193 0.10347091 0.037428699
0.55182558 0.044111893 0.0142819
0.57469732 0.097020134 0.0076822601
0.58921945 0.0692579 0.030967901
0.67250359 0.052852947 0.053036001
0.58165967 0.10207982 0.000762654
0.56770372 0.088768497 0.027691299
0.67479914 0.054605033 0.051959299
0.67543107 0.055071954 0.051327799
0.67607474 0.055532575 0.050716501
0.67675459 0.056026131 0.050181601
0.67749339 0.0565979 0.049764901
0.67824322 0.057174582 0.049366701
0.67905438 0.0578022 0.0491032
0.67990237 0.058470003 0.048901401
0.68076336 0.059144124 0.0487522
0.68156445 0.059769399 0.048460498
0.68228346 0.060306005 0.048003599
0.68289059 0.060724236 0.047303699
0.68350953 0.061185051 0.0466634
0.68409312 0.061588537 0.045923699
0.68466854 0.061987225 0.045176402
0.68528157 0.062430009 0.044511799
0.68601072 0.063001305 0.044093799
0.68674368 0.063542359 0.043652799
0.68742889 0.063998908 0.043080602
0.68796402 0.064425901 0.042316802
0.68855345 0.064826086 0.041586399
0.68921769 0.0653136 0.0410177
0.6899069 0.065844901 0.0405121
0.69062382 0.066380337 0.040050499
0.69135892 0.066919118 0.039614301
0.69203228 0.067410693 0.039062399
0.69263136 0.067815304 0.038340401
0.69318998 0.06824401 0.037626401
