# .PCD v0.7 - Point Cloud Data file format
VERSION 0.7
FIELDS x y z
SIZE 4 4 4
TYPE F F F
COUNT 1 1 1
WIDTH 561
HEIGHT 1
VIEWPOINT 0 0 0 1 0 0 0
POINTS 561
DATA ascii
0.54721087 0.10278924 -0.06093939
0.55236781 0.098281607 -0.060265251
0.55384749 0.083451569 -0.04888973
0.53631848 0.095655493 -0.048028447
0.54838264 0.091808192 -0.053003523
0.5541563 0.090729684 -0.05313519
0.53662419 0.10239944 -0.053238176
0.54557937 0.1020159 -0.05485636
0.55270475 0.097346388 -0.054748185
0.63432223 0.046173476 -0.036804747
0.64251512 0.044555277 -0.037741646
0.65093398 0.044193909 -0.036828261
0.6318835 0.054205056 -0.037654214
0.64186108 0.054181688 -0.038694128
0.65095168 0.05410393 -0.036980513
0.6333155 0.062291596 -0.037260089
0.64214379 0.06459152 -0.03750547
0.65046191 0.063826405 -0.036770757
0.55117351 0.082228459 -0.040682677
0.55479127 0.080752991 -0.041327018
0.53600186 0.092887782 -0.041503534
0.54637635 0.088845246 -0.042864781
0.55584162 0.090135939 -0.041989449
0.53694177 0.098836087 -0.043419152
0.54604989 0.099278137 -0.042148005
0.55268675 0.096538216 -0.042092118
0.64484036 0.0066004428 -0.026865914
0.65265602 0.008202346 -0.028177282
0.64570522 0.015890205 -0.026584618
0.65383875 0.017882733 -0.028694801
0.66432488 0.019274645 -0.02677645
0.67278516 0.022672046 -0.024832774
0.63581491 0.035556946 -0.02495895
0.64316714 0.031997737 -0.027774649
0.65399539 0.030006476 -0.030170726
0.66604984 0.029825935 -0.027859384
0.6761601 0.0309476 -0.02487609
0.62333977 0.047696985 -0.02506325
0.63022196 0.042649876 -0.029586723
0.64096874 0.038641211 -0.033345964
0.65523905 0.041076891 -0.034908336
0.66607511 0.042129666 -0.031894553
0.67767912 0.042636685 -0.027242275
0.68509454 0.044808336 -0.024451245
0.62184083 0.054340098 -0.026076637
0.62599528 0.053164072 -0.032868069
0.65679342 0.053950369 -0.035216477
0.66583997 0.053905774 -0.032684103
0.67793661 0.054146152 -0.028730679
0.68534571 0.054982409 -0.025614161
0.62229031 0.063905798 -0.024580896
0.62922418 0.066547461 -0.030314295
0.64109015 0.070433758 -0.03518606
0.65552658 0.066736601 -0.034670468
0.66620928 0.065896817 -0.031649303
0.67724138 0.065575458 -0.027526189
0.68473387 0.061714984 -0.025075918
0.54991633 0.080767579 -0.029687651
0.55677706 0.079282753 -0.029755991
0.63366753 0.074289463 -0.02652563
0.64242649 0.077076487 -0.029882301
0.6538955 0.078550592 -0.03054174
0.66592807 0.078276902 -0.027782945
0.67474836 0.076002151 -0.025389744
0.5386073 0.090474159 -0.031641062
0.54455805 0.089565434 -0.029011238
0.55733162 0.090274863 -0.029885598
0.65569985 0.085046716 -0.025081981
0.66299266 0.085173912 -0.024844287
0.53970152 0.096386015 -0.034566499
0.54622942 0.097062059 -0.031832278
0.55225199 0.096223369 -0.033592422
0.5861643 0.13109003 -0.024866352
0.59117711 0.1312622 -0.025227953
0.58340168 0.13795546 -0.026900951
0.59010023 0.13512261 -0.027074113
0.63567948 -0.0042313924 -0.01201735
0.63983542 -0.0013925097 -0.013425687
0.64152008 0.004625042 -0.01754267
0.65193731 0.0083298059 -0.018972714
0.5877288 0.023766186 -0.0125783
0.59496683 0.021804914 -0.014259975
0.60547161 0.021452641 -0.015106937
0.61674225 0.023141518 -0.013319686
0.6274448 0.022291554 -0.012452076
0.64246565 0.017681435 -0.0175773
0.65619761 0.015008422 -0.016763389
0.66532588 0.019208297 -0.018552948
0.67344415 0.022869153 -0.020446062
0.58504802 0.03114178 -0.014084417
0.59395111 0.029945701 -0.017348755
0.60596359 0.030052662 -0.019473409
0.61806917 0.030220117 -0.016703269
0.63023394 0.030809863 -0.01555204
0.64104205 0.028724758 -0.018386997
0.66991538 0.025613103 -0.014660865
0.67874891 0.02903682 -0.017451338
0.68698007 0.033575036 -0.017551227
0.5839166 0.041969758 -0.014487207
0.59395665 0.04199592 -0.019043807
0.60610455 0.041944787 -0.021775192
0.61801547 0.042041022 -0.020759959
0.62833309 0.039291594 -0.020729845
0.68253517 0.037994344 -0.023674097
0.6903941 0.041970048 -0.018999465
0.58462119 0.053643499 -0.014635466
0.59398657 0.054192312 -0.01896373
0.6059081 0.053831697 -0.021751219
0.61546636 0.05399704 -0.023291834
0.69110876 0.054560069 -0.019040069
0.58607841 0.06273929 -0.013300428
0.59412855 0.065828152 -0.015545081
0.60576594 0.06615033 -0.019077925
0.6169526 0.066597007 -0.022787301
0.62656987 0.071454838 -0.02379192
0.68233424 0.069133937 -0.022687277
0.68960637 0.065620668 -0.017984891
0.54748094 0.080201104 -0.018176096
0.55904329 0.078433543 -0.017604122
0.59669298 0.073095217 -0.012775546
0.60720521 0.075739719 -0.014798407
0.61789572 0.078057013 -0.018897286
0.62895906 0.079078458 -0.02253234
0.64018995 0.081523299 -0.023086675
0.64879841 0.083975069 -0.0238123
0.67124361 0.083535112 -0.0235493
0.67938983 0.079408295 -0.020856699
0.68735027 0.07685174 -0.015318409
0.54547042 0.090505697 -0.018682275
0.55729723 0.089502342 -0.018232686
0.62044573 0.08804173 -0.014545733
0.6297738 0.089989133 -0.018265583
0.64194852 0.089865446 -0.020602793
0.65380007 0.090988837 -0.021637658
0.66650605 0.090752281 -0.020956473
0.67759752 0.089943901 -0.01695065
0.68430012 0.085670747 -0.0127741
0.57473862 0.10702645 -0.012303499
0.57680607 0.10731721 -0.012360049
0.63263911 0.098818079 -0.014577629
0.64208937 0.10104285 -0.015743714
0.65393752 0.10085573 -0.015479981
0.66523302 0.099787541 -0.014911318
0.67459255 0.096755199 -0.013005847
0.57261419 0.11446722 -0.014116527
0.58139497 0.11478286 -0.014798308
0.58943462 0.11845338 -0.01347741
0.57258528 0.1260604 -0.015877584
0.58202761 0.12666324 -0.017717967
0.59180087 0.12658726 -0.017704995
0.57424456 0.1367441 -0.016714966
0.58022505 0.13642599 -0.020079575
0.59043884 0.13348393 -0.022142896
0.62269729 -0.013269761 -0.0018899444
0.62521881 -0.012697997 -0.0034460854
0.62197316 -0.0061595906 -0.0031538643
0.62984681 -0.0062800222 -0.0069225575
0.63925058 -0.0026353279 -0.0060910452
0.60656708 0.011594549 -0.00082216831
0.62311435 0.0078734523 -0.0017937635
0.62948728 0.005935302 -0.0071241152
0.6428473 0.0039924546 -0.0080898227
0.64981502 0.010993748 -0.006070863
0.58317381 0.020272762 -0.0045503667
0.59320927 0.016171303 -0.0064338571
0.60656637 0.0150156 -0.0063035255
0.6184296 0.016683718 -0.0061708055
0.63049269 0.017012089 -0.010273973
0.63908595 0.019431975 -0.010877069
0.65553308 0.015171186 -0.0058934204
0.66357654 0.021280201 -0.005803159
0.57376897 0.031353384 -0.0030911819
0.57964134 0.028705647 -0.0082767196
0.6340391 0.025259728 -0.011623358
0.638749 0.025606034 -0.011041557
0.66948479 0.025862142 -0.0064565074
0.67760438 0.031578619 -0.0062741828
0.68779963 0.034211263 -0.0061259572
0.56109929 0.046243187 -0.0016898732
0.57128119 0.042788986 -0.0045049936
0.57782823 0.041739974 -0.010227542
0.69385028 0.040835079 -0.0070544472
0.69764572 0.045081802 -0.0026892335
0.55851382 0.054215442 -0.0038905041
0.57002509 0.054040812 -0.0076903193
0.57884008 0.054784194 -0.010221652
0.69505823 0.053510871 -0.0094442172
0.70139307 0.054557282 -0.0042458423
0.70842624 0.058566514 -0.0006009115
0.55071229 0.068413079 -0.0016618889
0.55783063 0.065766409 -0.0057361643
0.57005417 0.065977037 -0.0084788473
0.58142221 0.066721298 -0.0084896171
0.58913755 0.071180075 -0.010960139
0.69500238 0.066500254 -0.010254687
0.70152611 0.066343576 -0.0061311992
0.71004879 0.067104436 -0.0024675243
0.54816812 0.07852447 -0.0063395384
0.56017268 0.077263981 -0.0085848793
0.56966209 0.078173533 -0.0050184974
0.58178288 0.075647607 -0.0035696558
0.59412169 0.077635944 -0.0062435041
0.60438806 0.080625989 -0.0075629991
0.69281435 0.079048075 -0.0071179722
0.70248133 0.077634521 -0.0031366649
0.70986515 0.076923281 -0.0021513898
0.54861152 0.087178737 -0.0073010437
0.55806804 0.087368004 -0.0052058296
0.5699088 0.090161912 -0.0026654156
0.57737505 0.093617707 -0.002303222
0.60929811 0.086852215 -0.004399972
0.61597288 0.0910374 -0.0077344994
0.68237418 0.094193831 -0.009783688
0.68749535 0.089332514 -0.0055455444
0.70375884 0.084427282 -0.000184776
0.56263864 0.10223707 -0.0026181519
0.5696128 0.10182367 -0.0078031691
0.58085465 0.10299435 -0.0060428581
0.62045252 0.099267021 -0.0049004331
0.62920564 0.10349216 -0.007499014
0.64104366 0.10686409 -0.010285698
0.65461475 0.10674907 -0.010830619
0.66741383 0.10569505 -0.0076430952
0.67747617 0.10062379 -0.0058265519
0.6845665 0.096942723 -0.0018046219
0.56333697 0.10972914 -0.0031732379
0.56912351 0.11468708 -0.0053498344
0.58325481 0.11358445 -0.0055372971
0.58996618 0.11632866 -0.0074202823
0.63324386 0.10950659 -0.0026454623
0.64242697 0.11064732 -0.0045004687
0.6538133 0.11081561 -0.0049680108
0.66319907 0.10985978 -0.0032110617
0.57159472 0.12513135 -0.0070736445
0.58078676 0.12261807 -0.010493773
0.59157693 0.12204892 -0.010032477
0.57311136 0.13355006 -0.010723019
0.6216954 -0.013585421 0.0061284481
0.62514198 -0.012680657 0.0053442479
0.62015212 -0.0063952128 0.0062018163
0.63111615 -0.0085523427 0.0062431181
0.63914037 -0.0026097435 0.0051717726
0.59539056 0.010800214 0.0070562991
0.60573 0.0099311778 0.0061197421
0.6202271 0.0085156867 0.0056508826
0.62510967 0.0066243145 0.0083976286
0.64510304 0.002615019 0.0060286815
0.65056121 0.005970763 0.0076857582
0.57467765 0.021784937 0.00808868
0.58165491 0.016721483 0.0056387354
0.59052318 0.012573384 0.0045640352
0.61895567 0.012767195 0.00589222
0.62439841 0.012730127 0.01123114
0.65656608 0.015628586 0.0053248857
0.66365832 0.020970048 0.0060991687
0.57057577 0.029693153 0.0059068995
0.57609427 0.024503596 0.00096410402
0.66980147 0.02567604 0.0059197401
0.67779416 0.029112494 0.0063459901
0.6868369 0.033077091 0.0032948335
0.55150694 0.046620939 0.010099843
0.5576576 0.042789847 0.006195168
0.56697005 0.038643215 0.0048090126
0.69347095 0.038655031 0.0034545122
0.70040303 0.043623306 0.0065204469
0.54945678 0.054549944 0.0069112987
0.55364859 0.051268529 0.0020672686
0.70614469 0.050351594 0.0051492434
0.70991355 0.056124404 0.0064139836
0.53990191 0.06920585 0.0112242
0.54600936 0.066193305 0.0059248153
0.71367967 0.066035375 0.0058255973
0.54616469 0.078289784 0.0061081205
0.57527548 0.082933687 0.00047035702
0.58239841 0.080360942 0.0055049136
0.59377259 0.080978803 0.005898546
0.60132772 0.083463244 0.0048924834
0.69498098 0.082640648 0.0011797468
0.69873232 0.08259894 0.0012174435
0.71389723 0.078379653 0.0055909161
0.55111092 0.084511407 0.0056497599
0.55776155 0.089028254 0.0056909248
0.57307339 0.09090583 0.008326306
0.57714814 0.089521602 0.0049694907
0.60715276 0.088830344 0.0062030698
0.61269087 0.094841726 0.0038725147
0.69098628 0.090576626 0.0055802604
0.70248657 0.08861424 0.005897827
0.7105602 0.086804613 0.0070398832
0.56201851 0.10031223 0.0035650965
0.57003421 0.10212298 0.0063661393
0.57919544 0.10218351 0.0032409772
0.61857158 0.10171476 0.0060527092
0.62511587 0.10718976 0.0033530523
0.67132384 0.1079255 0.000177419
0.67871886 0.10398266 0.005672677
0.68538058 0.097650439 0.0056774807
0.56350434 0.10880347 0.00059967098
0.56911755 0.11165728 0.0020960702
0.58143407 0.11010312 0.0013950862
0.63068169 0.11092975 0.0059945309
0.64181411 0.11398515 0.005943961
0.65396142 0.1140791 0.0059679947
0.665995 0.11098394 0.0058179642
0.67222303 0.10867604 0.007164489
0.62324262 -0.0072275861 0.013290877
0.62916732 -0.0065339189 0.017700864
0.63693887 -0.0043686116 0.018023092
0.59556991 0.010788009 0.017355775
0.60599297 0.010091349 0.018219348
0.61443073 0.011130762 0.015898431
0.62902617 0.0065840827 0.017742075
0.65266913 0.0081832316 0.017633993
0.57387602 0.021716977 0.017808119
0.58212894 0.016096815 0.018205579
0.59034842 0.012861183 0.019324835
0.61116493 0.012502586 0.023681901
0.61804295 0.013521294 0.019980384
0.6266709 0.013736185 0.017650926
0.65760672 0.016081657 0.018326735
0.66392869 0.021041477 0.017951064
0.56933677 0.02960038 0.018063495
0.66979533 0.0255023 0.018292366
0.67816705 0.029436618 0.018259905
0.68652213 0.032859299 0.020195041
0.55040222 0.045736019 0.017982654
0.55709201 0.039973829 0.017984476
0.56597948 0.037579164 0.018302243
0.69375437 0.038677685 0.021577433
0.70050335 0.044179462 0.018025236
0.54717422 0.054435741 0.017781174
0.70586973 0.050735414 0.019346245
0.70983452 0.056428004 0.017613236
0.53897107 0.06827382 0.017815376
0.54217744 0.062636182 0.017375311
0.71396285 0.06602636 0.01841764
0.53973001 0.072369315 0.018736733
0.54482836 0.078953817 0.018168645
0.57484561 0.083294824 0.0221084
0.58238798 0.080728911 0.018290482
0.59413779 0.079594396 0.018066974
0.60238051 0.082605377 0.020078041
0.69511425 0.08335498 0.02339155
0.69660401 0.083115563 0.023835899
0.71478868 0.078562498 0.017960219
0.55090678 0.084840536 0.017811781
0.55800605 0.08945328 0.018018121
0.56982017 0.089624219 0.017741511
0.57697362 0.084682852 0.014173822
0.60765034 0.088928655 0.017479593
0.61268228 0.095013522 0.0201727
0.69078672 0.090815336 0.018052353
0.70221311 0.089822695 0.018136777
0.7107926 0.087261632 0.017563367
0.61846042 0.10187882 0.017791353
0.62483424 0.1073128 0.019729767
0.67119747 0.10786419 0.022164533
0.67848927 0.10357133 0.017771062
0.68525088 0.097435109 0.017071445
0.63055259 0.11099515 0.017782107
0.64190686 0.1141725 0.01809912
0.65384758 0.11424509 0.018037854
0.66590315 0.11093811 0.01777604
0.67209768 0.10859033 0.013161934
0.62311167 -0.0042506633 0.031851508
0.62954444 -0.0073757349 0.029748078
0.63874602 -0.0021458685 0.029946787
0.59926713 0.01189868 0.024766449
0.60443521 0.011868381 0.024326749
0.62321353 0.0013010999 0.033678219
0.62723702 0.007275077 0.029644135
0.6448226 0.0023566508 0.031287968
0.65079838 0.0071448092 0.029470094
0.57531369 0.023130458 0.02546645
0.58294916 0.019718347 0.029270319
0.59372419 0.015700152 0.030574091
0.60614794 0.014945081 0.030481922
0.61786634 0.018050535 0.030512527
0.62624645 0.015398231 0.031332437
0.65633756 0.015631964 0.029985718
0.66350937 0.021234063 0.029798945
0.57300675 0.03085852 0.027982438
0.57901096 0.028543852 0.033119019
0.66952741 0.025853012 0.030387087
0.67768902 0.031783048 0.029472912
0.68749166 0.03493654 0.028982155
0.55102956 0.046500601 0.028230526
0.55703402 0.041552261 0.030098563
0.56982148 0.039540693 0.030402744
0.57703215 0.038265478 0.035082545
0.68337578 0.036114078 0.031246798
0.69262606 0.038226582 0.030307626
0.69757283 0.044616271 0.029324742
0.54853565 0.054121852 0.02981125
0.58694279 0.058667034 0.035829552
0.58911955 0.058880229 0.035773702
0.69567961 0.057326701 0.035510834
0.70115536 0.054305345 0.029712517
0.70852399 0.058340799 0.0251878
0.53969049 0.067684084 0.024514012
0.54301071 0.065102868 0.02976788
0.5862332 0.068158045 0.034309044
0.59286243 0.066865861 0.032298762
0.60299909 0.069871269 0.03447023
0.69514698 0.067137197 0.034687918
0.70192367 0.065741517 0.031740945
0.71037042 0.066735879 0.027114881
0.54678035 0.078068055 0.029750211
0.55367029 0.082821555 0.033912491
0.57165951 0.079661123 0.03185105
0.58148968 0.076631382 0.02966403
0.59495854 0.074986622 0.02706329
0.60600573 0.078047641 0.030378886
0.61296737 0.080593146 0.034884669
0.69240475 0.079076834 0.031353567
0.70203364 0.077999815 0.029269796
0.7106657 0.077593602 0.026774554
0.55135733 0.084641539 0.025550622
0.55867648 0.087680683 0.029851073
0.56765634 0.087660491 0.028658204
0.61028475 0.086862907 0.026959749
0.61592293 0.09106838 0.031438723
0.68161285 0.092984028 0.033118758
0.6875003 0.089055456 0.028972739
0.70341086 0.085915424 0.025646346
0.70890212 0.0849858 0.024992149
0.62038767 0.099552274 0.028476829
0.6290341 0.10351394 0.031638157
0.64086998 0.10607257 0.034400903
0.65411675 0.10654853 0.034645468
0.66724616 0.10487664 0.031571019
0.67710727 0.10040677 0.028954472
0.68422914 0.096685387 0.02465835
0.63266373 0.10965016 0.026759638
0.64243156 0.11102847 0.028709747
0.65406251 0.11117641 0.028870706
0.66406459 0.10970273 0.0268001
0.62324977 -0.0032731849 0.037909649
0.62952226 -0.0054807831 0.042321198
0.63837814 -0.0017547008 0.041420814
0.62341237 0.0015975232 0.038036749
0.63035244 0.0052690031 0.042363439
0.64244819 0.005633235 0.042776018
0.65174437 0.0084047858 0.043079235
0.58663487 0.023105823 0.036671523
0.59502274 0.021453533 0.038124893
0.60568869 0.021173598 0.03839156
0.61635816 0.022506338 0.037069608
0.63113761 0.018735498 0.038584419
0.64282125 0.017983831 0.041458596
0.65625387 0.016398838 0.041878138
0.66537601 0.019575655 0.043201555
0.67298675 0.023319025 0.044526324
0.58434737 0.030726625 0.038766
0.59385359 0.029911948 0.042574778
0.60603672 0.029863177 0.043154694
0.61804748 0.02950236 0.040840592
0.62970269 0.029608807 0.040890515
0.64271384 0.030444115 0.038980458
0.65134782 0.029940592 0.045161799
0.66837829 0.030710474 0.044245094
0.67808717 0.030233385 0.044665698
0.68695474 0.033679705 0.041041356
0.55165744 0.046840452 0.038644589
0.55766159 0.042269483 0.042196926
0.57005447 0.042726327 0.04253453
0.58162004 0.042449459 0.039276052
0.59384054 0.042059466 0.04342033
0.60604101 0.042010818 0.044628695
0.61797696 0.041814908 0.043113656
0.63023812 0.042257309 0.042170998
0.6407851 0.039563287 0.043698721
0.64856458 0.036330163 0.047654498
0.67193836 0.036076959 0.047029
0.68033159 0.040719025 0.045803562
0.69044518 0.042031407 0.042095087
0.6961056 0.046341926 0.036303848
0.54977953 0.054797377 0.040693734
0.55358595 0.051635724 0.046049096
0.58189833 0.053700201 0.040619306
0.59403807 0.053774096 0.040115822
0.6059866 0.054053213 0.042286307
0.61817229 0.054028857 0.043741807
0.62650234 0.05231994 0.045468051
0.68277246 0.052595213 0.046897214
0.68993294 0.053775955 0.041038021
0.69601846 0.049113929 0.036314201
0.54817635 0.065481022 0.041192167
0.55666661 0.069188349 0.046869203
0.57072955 0.068079531 0.043489538
0.58090675 0.065298542 0.039926969
0.59735203 0.061835412 0.037781484
0.60677993 0.065055706 0.038551163
0.61820304 0.065971695 0.042901866
0.62636977 0.067379437 0.045441028
0.68086123 0.067069374 0.045704238
0.68940073 0.065901458 0.040667299
0.5496062 0.074682824 0.038927149
0.55846572 0.077878498 0.041150041
0.56748205 0.075718299 0.038418856
0.57768095 0.072535768 0.036824543
0.610991 0.073162004 0.036623649
0.61852014 0.077713408 0.039860465
0.62987494 0.078093573 0.043817766
0.63939601 0.081252337 0.045442186
0.67066455 0.083095297 0.047554802
0.67883348 0.078539953 0.043846022
0.68747222 0.076792911 0.038505126
0.56167442 0.084846951 0.036419231
0.56433541 0.084685951 0.0362061
0.62101871 0.088297419 0.037786104
0.6300562 0.0899719 0.041055743
0.64199227 0.090093419 0.042686779
0.65417361 0.091794267 0.045937743
0.66615748 0.090656027 0.045099545
0.67710203 0.0891831 0.040344946
0.68480206 0.084665 0.036631398
0.63245308 0.098448068 0.037628483
0.64228415 0.1000055 0.038128223
0.65443903 0.10048534 0.039224986
0.66527015 0.099214278 0.038845003
0.67364639 0.097115859 0.03741629
0.65295392 0.010736108 0.049913928
0.6478287 0.015200481 0.048376303
0.65423542 0.017403418 0.052157994
0.66420209 0.019520929 0.051218249
0.67244172 0.023678049 0.048475999
0.65563661 0.029961064 0.050233793
0.66566098 0.029192159 0.049714919
0.6736533 0.02694694 0.048456002
0.56131738 0.046113711 0.04866131
0.56876272 0.046836346 0.048943348
0.63448787 0.047188248 0.049629148
0.64302564 0.044234212 0.051621556
0.65361679 0.04177187 0.053317077
0.66586912 0.041924596 0.053225189
0.67592454 0.043804429 0.050730743
0.55848479 0.054643009 0.050785679
0.56998628 0.053849738 0.052087583
0.57715791 0.054254457 0.049565487
0.63101512 0.054305013 0.052935869
0.64191073 0.053828299 0.05635811
0.65418363 0.054037787 0.056980841
0.66626829 0.053981449 0.055453476
0.6768502 0.054200612 0.050798602
0.55878979 0.06450662 0.050277006
0.56900877 0.062945835 0.050353378
0.57644349 0.060300745 0.0489254
0.63115913 0.06546174 0.053014871
0.64196873 0.065983824 0.056936145
0.65422577 0.066156723 0.057025298
0.66604924 0.065928832 0.054541308
0.67554283 0.06513457 0.050038312
0.63430655 0.074206628 0.05032593
0.64251244 0.077433437 0.052710131
0.65443236 0.078061186 0.053951133
0.66580927 0.078155316 0.051172145
0.67370224 0.075346157 0.049275856
0.64788234 0.084506027 0.0480837
0.65453553 0.085499592 0.049026027
0.66468716 0.084980503 0.048412018
