# .PCD v0.7 - Point Cloud Data file format
VERSION 0.7
FIELDS x y z
SIZE 4 4 4
TYPE F F F
COUNT 1 1 1
WIDTH 761
HEIGHT 1
VIEWPOINT 0 0 0 1 0 0 0
POINTS 761
DATA ascii
-0.062693112 0.16777477 -0.0607168
-0.063322522 0.17474492 -0.060998462
-0.066577338 0.15769649 -0.053051077
-0.070465699 0.1683905 -0.050274126
-0.064904079 0.16517939 -0.055405356
-0.073134787 0.17636321 -0.052560087
-0.065102622 0.17527497 -0.055622119
-0.072107241 0.18073669 -0.053829726
-0.067985617 0.18076807 -0.056955133
-0.071785428 0.14986467 -0.041395236
-0.06957455 0.14963949 -0.0405889
-0.071134388 0.15511739 -0.044363119
-0.065773182 0.15543428 -0.045300551
-0.072269313 0.16534439 -0.044774387
-0.063431002 0.16534704 -0.045340516
-0.075157866 0.17519981 -0.045283623
-0.066708907 0.17321461 -0.045541525
-0.033275235 0.036771916 -0.030478248
-0.02945905 0.0355772 -0.0300979
-0.031611368 0.040902402 -0.030073568
-0.014053232 0.049034234 -0.030629961
-0.0051468997 0.048927952 -0.030551482
0.0013572661 0.049662899 -0.0303632
-0.022327768 0.05713895 -0.031704098
-0.015186974 0.055526555 -0.03354995
-0.0051699858 0.055510659 -0.03280881
0.0044575329 0.05627393 -0.031001378
0.0103374 0.0553349 -0.0300221
-0.024359791 0.065698557 -0.033934847
-0.015187678 0.06521558 -0.036931232
-0.0052191089 0.065587319 -0.035216343
0.0047901701 0.065417737 -0.032746356
0.012459689 0.066745229 -0.030767515
-0.031237343 0.076493077 -0.031771999
-0.025511242 0.075144373 -0.036483664
-0.015302361 0.075157903 -0.038564421
-0.0052624443 0.075566873 -0.036804806
0.0047387355 0.075426504 -0.034412559
0.012557446 0.075096928 -0.03123869
-0.030843932 0.083129227 -0.031628262
-0.025515782 0.085288972 -0.036141906
-0.015143386 0.085577153 -0.03844025
-0.005314731 0.085535154 -0.036954641
0.0047678873 0.085298538 -0.03373288
0.012177911 0.085167736 -0.03086515
-0.023482129 0.092368215 -0.033004209
-0.014670465 0.093914695 -0.033924233
-0.0050560916 0.094050363 -0.033398826
0.0043792478 0.092830531 -0.031976718
0.0111008 0.090922564 -0.030381734
-0.072215669 0.14904138 -0.035069883
-0.067794219 0.14885567 -0.034176346
-0.072877444 0.15543233 -0.03540621
-0.063302793 0.154918 -0.035210174
-0.076612443 0.16530211 -0.035238042
-0.063996993 0.16589382 -0.034710012
-0.074316539 0.17188874 -0.0358257
-0.068414874 0.17116414 -0.036099385
-0.043220181 0.035831355 -0.024024893
-0.035454601 0.03459214 -0.025820695
-0.024963198 0.035417475 -0.026040502
-0.015207235 0.035682384 -0.025000187
-0.0052101682 0.035912301 -0.023999268
0.0046895803 0.036547545 -0.023196874
0.012834057 0.037351094 -0.021804867
-0.042063817 0.042306278 -0.02241342
-0.035066362 0.044738211 -0.025673499
-0.025387412 0.045065988 -0.027847109
-0.015420768 0.044036563 -0.027886139
-0.0051138862 0.043557853 -0.026884647
0.005041027 0.044754226 -0.026020372
0.014880778 0.044989876 -0.023992896
0.02146125 0.047280222 -0.021290839
-0.0300794 0.058620751 -0.0204133
-0.027054135 0.054612968 -0.025328366
0.0063484656 0.051726852 -0.029509084
0.014910878 0.055185374 -0.028213855
0.023845414 0.055117544 -0.023755288
-0.03119416 0.066314124 -0.023445472
-0.028946079 0.063194461 -0.027060393
0.016453203 0.064110242 -0.028915707
0.024649199 0.064840652 -0.024229201
-0.054264076 0.079735711 -0.020448439
-0.0492585 0.079729095 -0.020088699
-0.03334453 0.075102642 -0.025062189
0.017511129 0.075175755 -0.028877076
0.025011038 0.07491418 -0.024821332
0.030510344 0.076078631 -0.020813316
-0.05522842 0.085551322 -0.021338597
-0.045297801 0.085604385 -0.021482626
-0.034755226 0.085038871 -0.024920205
-0.0297851 0.089026101 -0.0295849
0.017214073 0.085410751 -0.028296929
0.024948359 0.084893964 -0.023864757
0.03024503 0.084520504 -0.020162586
-0.054629605 0.095314592 -0.021532105
-0.045336477 0.095649712 -0.022028375
-0.035386126 0.094570234 -0.023390478
-0.026065443 0.095346026 -0.025897065
-0.015157063 0.097880818 -0.026735112
-0.0046300907 0.09862636 -0.026939474
0.0052408874 0.097380966 -0.026216326
0.014855974 0.094667688 -0.025354063
0.0237423 0.094475858 -0.021894619
-0.052424546 0.10237709 -0.020762827
-0.044841245 0.10362212 -0.020914432
-0.03519924 0.10375281 -0.021242097
-0.025082035 0.1045787 -0.022620507
-0.015311576 0.10551678 -0.022450473
-0.0052278046 0.10516123 -0.022723773
0.0042631151 0.10456065 -0.02129367
0.014647325 0.10210785 -0.021544851
0.021781467 0.10125967 -0.020526951
-0.021274749 0.1100115 -0.02050795
-0.0111844 0.110115 -0.020641301
-0.0055843545 0.11120311 -0.02082037
0.003320941 0.11081792 -0.020208854
-0.073223978 0.14832684 -0.025391687
-0.06616053 0.14752169 -0.025072286
-0.074916333 0.15548544 -0.025409363
-0.062122367 0.15421489 -0.025178352
-0.075943582 0.16559768 -0.025298614
-0.065365598 0.16476272 -0.025198381
-0.020658899 0.169735 -0.020182051
-0.013815939 0.16843258 -0.022291569
-0.0093544731 0.16849086 -0.022635948
-0.071853317 0.17038399 -0.029111916
-0.022055462 0.17508982 -0.021196887
-0.013564324 0.17557149 -0.024904104
-0.0092711635 0.17414837 -0.026529176
-0.021201726 0.18222925 -0.021144914
-0.014759616 0.18291631 -0.024665326
-0.054012638 0.036046293 -0.011363455
-0.046011019 0.035661582 -0.014727164
-0.034940828 0.036413174 -0.01545701
-0.025035333 0.037805963 -0.015965108
-0.015117336 0.037339486 -0.015820377
-0.0051402329 0.036914799 -0.015332317
0.0047928793 0.035982452 -0.014569569
0.01560276 0.035838325 -0.01499517
0.020117499 0.0390306 -0.012698567
-0.051995534 0.041121714 -0.010633778
-0.044417955 0.044598516 -0.013544991
-0.036482137 0.048499163 -0.015478036
0.019594301 0.041435 -0.0196763
0.024168327 0.045150705 -0.015264743
0.030177101 0.049696498 -0.0112195
-0.050617799 0.0590261 -0.0100428
-0.044367574 0.055424307 -0.011188897
-0.033757228 0.055103481 -0.013305108
-0.029801333 0.05185087 -0.019029066
0.028817777 0.054295808 -0.01814699
0.032369629 0.055819578 -0.013563506
-0.062663466 0.068661034 -0.011683945
-0.053875718 0.06678199 -0.012281982
-0.045181412 0.065085128 -0.014042367
-0.035253245 0.064705439 -0.015649194
0.029256083 0.064406902 -0.019887248
0.03498438 0.065156326 -0.014875893
-0.072681926 0.077314109 -0.012496438
-0.065102763 0.075217374 -0.015800608
-0.05536592 0.074733272 -0.017705999
-0.045117032 0.075223781 -0.018039081
-0.037553977 0.074842691 -0.018486358
0.035295639 0.075021394 -0.015254407
-0.074703917 0.085171178 -0.01393071
-0.065295137 0.0852357 -0.018435692
-0.059782799 0.081072301 -0.0197911
-0.0447652 0.0811738 -0.019997999
0.035702724 0.08522626 -0.016396513
0.040363155 0.085520126 -0.011142627
-0.074829817 0.094842009 -0.013513772
-0.065342106 0.095271245 -0.017477704
-0.05921036 0.096870705 -0.019396119
0.02798586 0.096859872 -0.01870569
0.03437946 0.094457664 -0.014425081
-0.07314688 0.10397303 -0.0117196
-0.06539429 0.10528982 -0.015347633
-0.05593811 0.10611168 -0.018507773
-0.045942582 0.10827201 -0.019070014
-0.035303809 0.1088907 -0.019337725
-0.028899724 0.10930625 -0.019228699
0.0087963268 0.10824434 -0.019829599
0.015610456 0.10701761 -0.018358666
0.025389966 0.10532799 -0.015902225
0.032683175 0.10394548 -0.01222294
-0.070902899 0.110786 -0.0101311
-0.064056478 0.11384736 -0.012125156
-0.055040289 0.11536527 -0.014772072
-0.044820923 0.11498007 -0.015868992
-0.034965981 0.11539065 -0.015119824
-0.025057323 0.11538773 -0.015140847
-0.015434576 0.11563502 -0.016089961
-0.0051956968 0.11597378 -0.016661519
0.0051795803 0.11575398 -0.01757988
0.014987797 0.11518532 -0.015163449
0.023834217 0.11311822 -0.012137106
-0.053046037 0.12110322 -0.011072433
-0.045138668 0.12184473 -0.011759214
-0.038076211 0.12137911 -0.011040645
-0.021855799 0.120004 -0.0110164
-0.012698811 0.1207926 -0.011349929
-0.0050324691 0.12165912 -0.011717765
0.0053237155 0.12183029 -0.012240353
0.012691118 0.12137135 -0.01157671
-0.073766373 0.14669736 -0.014877699
-0.064828038 0.14585215 -0.014765468
-0.076663956 0.15549262 -0.015203387
-0.063069955 0.15523019 -0.014835971
-0.040902503 0.1585796 -0.01068784
-0.034603577 0.15770793 -0.011480436
-0.025413746 0.15861817 -0.011592557
-0.018173251 0.15965351 -0.01079915
-0.074082784 0.1630064 -0.015587214
-0.067016028 0.16245244 -0.015914327
-0.041341957 0.16430807 -0.011067347
-0.034646127 0.16519989 -0.01435351
-0.024314815 0.16555028 -0.015447374
-0.014857029 0.16497499 -0.015208894
-0.0097685717 0.16770117 -0.019132601
-0.033704761 0.17398632 -0.013579689
-0.025073761 0.1754521 -0.015233572
-0.016508911 0.17441297 -0.017695474
-0.023292348 0.18305917 -0.014285567
-0.018237086 0.18403731 -0.017758477
-0.070753053 0.036024231 -0.00084528804
-0.06465251 0.035395008 -0.0055368892
-0.055365987 0.034063619 -0.0055073765
-0.045369487 0.033690635 -0.0050031324
-0.033869036 0.038188495 -0.0053365906
-0.024892557 0.038394716 -0.0050308518
-0.014818892 0.038663931 -0.0050118011
-0.0048037171 0.038963646 -0.0051334952
0.0051445207 0.037197419 -0.0052030114
0.015247446 0.034766078 -0.0055358512
0.023216298 0.037576117 -0.0038174067
0.033412714 0.039180968 -0.0011357204
-0.064119272 0.042683057 -0.0036804776
-0.055579279 0.045130208 -0.0065213768
-0.048389543 0.047516163 -0.0094298664
0.026325366 0.043231416 -0.0070424783
0.034802809 0.045351159 -0.0052163899
0.043916024 0.046651147 -0.0032524026
0.0504722 0.048918001 -0.00068491499
-0.054382574 0.054838244 -0.0047991411
-0.04844692 0.052264787 -0.0092741083
0.036499932 0.054342426 -0.0071830959
0.044765335 0.054988749 -0.0054667974
0.052440654 0.056007814 -0.0026165419
-0.072008051 0.068320543 -0.0024574543
-0.065166585 0.064544179 -0.004292537
-0.056519318 0.062394571 -0.0063683297
0.039146625 0.062926225 -0.0081974212
0.043983333 0.064794704 -0.0034498931
0.052623712 0.062918261 -0.0017162582
-0.081070334 0.077597402 -0.0025776445
-0.076462388 0.074486896 -0.0059768041
-0.069094151 0.070355654 -0.0084884148
0.039649062 0.075884342 -0.0097910436
0.042526927 0.074609801 -0.0049403589
-0.082953595 0.085350402 -0.0041836454
-0.079085313 0.083934791 -0.0091331778
0.042896219 0.084572695 -0.0052927425
-0.083504602 0.095071428 -0.0045251967
-0.079281248 0.09596391 -0.0093314536
0.038643178 0.097419642 -0.0082594901
0.041882228 0.094098292 -0.0046849833
-0.082333364 0.10432097 -0.00312615
-0.077335007 0.10602628 -0.0077097649
0.036676433 0.10543039 -0.0055159447
0.040829886 0.10159183 -0.001473445
-0.082822137 0.11602157 -0.0019609556
-0.075390227 0.11504763 -0.0063543413
-0.066579126 0.11761229 -0.0090748211
0.019395199 0.1197975 -0.0091070794
0.026505949 0.11686462 -0.0063299639
0.032550111 0.1131461 -0.0037750334
-0.084220096 0.12506677 -0.0032677231
-0.075408496 0.12522271 -0.0075434754
-0.065219089 0.12533514 -0.0087360386
-0.055156231 0.12551494 -0.0070346114
-0.044824287 0.12661482 -0.005209248
-0.035100501 0.12416171 -0.0051641939
-0.02502838 0.12276728 -0.0054198257
-0.015285264 0.12426464 -0.0055511291
-0.0049328259 0.12670887 -0.0055778571
0.0050663338 0.12684174 -0.0054264083
0.014976845 0.12462462 -0.0051188283
0.022761187 0.12189131 -0.0029349094
-0.082600892 0.13463746 -0.0021485749
-0.075400397 0.13537741 -0.0064940397
-0.06490159 0.13556889 -0.0077241305
-0.055022158 0.1350704 -0.0038798654
-0.049538065 0.13147467 -0.00086848933
-0.080839805 0.14291476 -0.0014815084
-0.076300055 0.14476769 -0.0060168076
-0.062912688 0.14485233 -0.0063334703
-0.055525422 0.14493556 -0.0020652274
-0.045354601 0.14786702 -0.0024620811
-0.039352302 0.14938726 -0.0014054296
-0.075504906 0.15489969 -0.0051744119
-0.065576576 0.15470961 -0.0049837227
-0.053833574 0.15450963 -0.0027157115
-0.044851262 0.15438685 -0.0070493482
-0.034785561 0.15319043 -0.0054309596
-0.025519775 0.15693206 -0.004685631
-0.018485816 0.15924801 -0.008333914
-0.071854249 0.16077086 -0.0087884115
-0.069053568 0.16035433 -0.0090973666
-0.051595584 0.16280563 -0.0024432219
-0.046096206 0.16581647 -0.0062607597
-0.033559166 0.16561095 -0.0031166389
-0.025641855 0.16452417 -0.0066389437
-0.01745447 0.16216774 -0.0080990158
-0.041922025 0.17184973 -0.0046928036
-0.034514777 0.17483556 -0.0048016813
-0.028073588 0.17557891 -0.0076221568
-0.026767053 0.18076356 -0.0085536782
-0.071611866 0.036475163 0.0051474543
-0.06526082 0.033727735 0.0052963891
-0.055029761 0.033567369 0.0050746342
-0.044941694 0.034096248 0.005274741
-0.036710955 0.03422986 0.0059647649
-0.024814181 0.038215771 0.0046647252
-0.015217106 0.038391776 0.0049941135
-0.0049854452 0.038228519 0.0051442734
0.0044663227 0.034761272 0.0044806236
0.015808303 0.034904774 0.0029023511
0.024740944 0.035040278 0.0053066956
0.035092346 0.037275445 0.0052082376
0.041152503 0.039298367 0.0072292709
-0.07053221 0.040841378 0.0041503804
-0.066065177 0.044408914 0.005276619
-0.057946801 0.04874415 0.0057509886
0.045808613 0.042884164 0.0041962839
0.052617252 0.04746053 0.0056294305
-0.061989196 0.059466403 0.0065768543
-0.057176691 0.055188701 0.0051068612
0.057032075 0.054941434 0.0045709894
0.060220502 0.059525952 0.0086646499
-0.074006945 0.066232435 0.0055970601
-0.066407233 0.061497085 0.0043309014
0.046896167 0.068289958 0.0014393646
0.056812491 0.065949917 0.0036105234
0.060317237 0.063111097 0.0083145481
-0.082720824 0.075897545 0.0053869751
-0.07836242 0.071154207 0.0042286557
0.046369672 0.074786708 0.004780578
0.054177985 0.07145191 0.0066854386
-0.086506136 0.08476232 0.0048739207
0.045612931 0.08479026 0.0046865763
-0.087637685 0.094926998 0.0050360397
0.044498041 0.09455397 0.0046757273
-0.085870832 0.10489135 0.0048834477
0.038669363 0.10801829 0.0039866082
0.041699648 0.10298605 0.0050348043
-0.091090716 0.11735956 0.0072617815
-0.086751752 0.11410204 0.0037532148
0.02916925 0.11935662 0.0024499893
0.033928785 0.11498161 0.00525661
-0.091471143 0.12479036 0.0074693188
-0.088719577 0.12554565 0.0024459017
-0.043106649 0.12891836 0.0041561075
-0.034876853 0.12699319 0.0050453637
-0.025166314 0.12576009 0.0048030079
-0.014951297 0.12822394 0.0049320669
-0.0065042186 0.12958176 0.0022025476
0.0055704303 0.12986891 0.00028603285
0.01579099 0.12827654 0.004363813
0.024635838 0.12338942 0.0051168706
-0.09070015 0.1322825 0.0077320547
-0.087446697 0.13553752 0.0041211168
-0.051058527 0.13821891 0.0013916825
-0.047910184 0.13391925 0.0052752919
-0.0040103267 0.13059813 0.0060306718
0.0050352793 0.1309956 0.0052997051
0.011317531 0.13040169 0.0070440364
-0.084575631 0.14460389 0.0046856795
-0.05087056 0.142129 0.0016092509
-0.046796471 0.14539875 0.0053213416
-0.039285652 0.14948851 0.00089065603
-0.083232522 0.15175374 0.0062133195
-0.074906863 0.15486363 0.0046988558
-0.064844377 0.15489927 0.0045769447
-0.056329839 0.1580206 0.0054325135
-0.044493206 0.1552632 0.0070812348
-0.035788428 0.1556423 0.0026597977
-0.028786639 0.15900061 0.00071148376
-0.052726671 0.16221978 0.0035479947
-0.04484896 0.16487454 0.0039491178
-0.038283825 0.16541247 0.0015076919
-0.040567599 0.171048 0.000226569
-0.037487339 0.1711894 0.00060075661
-0.070268899 0.036098152 0.0106367
-0.0648036 0.036047786 0.014636792
-0.056537762 0.033856042 0.015226686
-0.034263898 0.034401078 0.014396124
-0.024340572 0.037777025 0.015185153
-0.014902414 0.03825631 0.014993307
-0.0042144055 0.037684955 0.014967847
0.0035164729 0.034446508 0.015705006
0.0145275 0.035448499 0.01889535
0.025493575 0.03515153 0.015296445
0.034964953 0.036885019 0.015367113
0.041382678 0.039495889 0.014803145
-0.063423939 0.042573083 0.01289242
-0.054867636 0.045862202 0.015438485
0.046101976 0.041934885 0.01524636
0.053409982 0.047028992 0.014701759
-0.062617071 0.059157312 0.014754594
-0.053730663 0.054605335 0.014683402
-0.049894653 0.052216999 0.016644351
0.058534909 0.054148231 0.014957973
0.06035538 0.05892859 0.013729682
-0.074395768 0.066113785 0.015063454
-0.067458674 0.060978778 0.015629493
0.059554897 0.068021886 0.016281238
0.060620077 0.064281426 0.014215856
-0.082914606 0.075898811 0.015318302
-0.079508603 0.070777141 0.015408156
0.047134664 0.07542979 0.014858658
0.055280395 0.072399765 0.014942497
-0.087399684 0.084733136 0.014976716
0.045784298 0.084744871 0.014729829
-0.089428514 0.094955638 0.014924553
0.044478733 0.094565958 0.014660696
-0.087583981 0.10502452 0.014868543
0.038900699 0.10838065 0.015273192
0.041621979 0.1029733 0.014417808
-0.092349507 0.11571599 0.015074386
-0.08844021 0.11128132 0.015117622
0.029852131 0.119835 0.017384
0.034100361 0.11511394 0.01499471
-0.093621001 0.12482965 0.014765941
-0.042555898 0.12828009 0.01541137
-0.034875371 0.12681013 0.014989976
-0.02529975 0.12594086 0.015049018
-0.015337698 0.12872377 0.015254919
-0.0097021451 0.12994251 0.018364601
0.016636286 0.12853791 0.015231134
0.025104104 0.12375169 0.01485175
-0.091305546 0.13443087 0.015354047
-0.089191519 0.13790771 0.011901084
-0.0501104 0.138566 0.0193811
-0.047180176 0.1345614 0.014777244
-0.010327275 0.13010275 0.0137984
-0.0047432375 0.13083135 0.014854426
0.0051070522 0.13143671 0.015023094
0.011624482 0.13052584 0.014695853
-0.091206342 0.14513139 0.01629159
-0.08894939 0.14388056 0.011557132
-0.051321555 0.14544983 0.016155455
-0.04949449 0.14360814 0.011957485
-0.090634242 0.15019286 0.0161353
-0.085502133 0.1529991 0.014875096
-0.074905679 0.15591359 0.015087852
-0.064907156 0.15606357 0.01503464
-0.054739147 0.15423945 0.014603662
-0.048925601 0.15256509 0.010674629
-0.063048907 0.035657387 0.025418319
-0.055552382 0.034209076 0.025196897
-0.045067102 0.034065839 0.028211107
-0.034592006 0.034690354 0.025379013
-0.024813177 0.0380955 0.025237286
-0.01507861 0.038419276 0.024927802
-0.0050567868 0.038618229 0.024895158
0.0049517793 0.036920935 0.02497085
0.014701571 0.034838032 0.025253126
0.025038693 0.036522042 0.024905736
0.033980608 0.038604621 0.023136649
0.040304199 0.0398794 0.0201445
-0.062604696 0.04211374 0.026831601
-0.055197693 0.046152283 0.024458015
0.029188134 0.040839031 0.029424867
0.035382766 0.042098846 0.027624045
0.04516682 0.045000128 0.02557818
0.052085981 0.048190735 0.022710133
-0.060228098 0.059992 0.021311199
-0.052983657 0.055392489 0.024762755
0.049302865 0.052108154 0.029236866
0.055100825 0.055518072 0.02507144
-0.072880082 0.067535564 0.024166897
-0.065224521 0.063398227 0.025102064
-0.056987096 0.061616838 0.027012607
0.044663072 0.066081323 0.027608996
0.055476531 0.065082744 0.02497936
-0.081822515 0.077399462 0.024336219
-0.077574514 0.072697699 0.025960183
0.044537637 0.07460323 0.024699101
0.053199671 0.071222395 0.021971243
-0.085191876 0.085049234 0.025221126
0.043966088 0.084732696 0.024865726
-0.087138556 0.095012262 0.025028897
0.03953797 0.098753043 0.028765917
0.04254042 0.09454903 0.024698382
-0.084733546 0.10470859 0.025210133
0.037897125 0.10600479 0.025710521
0.040908035 0.10186221 0.0221675
-0.091926083 0.11671756 0.024214892
-0.086863548 0.11235414 0.025321804
-0.044888511 0.11937988 0.029398976
-0.032247249 0.11940383 0.029449483
-0.028140238 0.1197184 0.0290669
0.028283797 0.11852417 0.026782265
0.033225924 0.11407647 0.024864763
-0.093555197 0.12488506 0.024771003
-0.045308333 0.12481262 0.025661854
-0.035068367 0.12312473 0.02478553
-0.024808362 0.12283862 0.024748387
-0.014840868 0.1265551 0.025011379
-0.0053812526 0.12856908 0.026408022
0.0053660478 0.12864739 0.027009856
0.015176839 0.12698485 0.025234429
0.024066187 0.12284956 0.02443614
-0.091199137 0.1340311 0.02369415
-0.089366131 0.13726057 0.026654944
-0.051825348 0.1368843 0.026342018
-0.048324186 0.13304092 0.023931034
-0.0034130532 0.13031515 0.021771293
0.0049991496 0.13052461 0.0221064
0.01050185 0.1301495 0.021390151
-0.090985499 0.14452903 0.023947673
-0.088855736 0.14694309 0.028166767
-0.053671911 0.14490496 0.02509358
-0.090354763 0.15021966 0.021119932
-0.084742315 0.15257403 0.024683179
-0.07484249 0.15534121 0.024996532
-0.064878136 0.15562071 0.024998941
-0.056120843 0.15326391 0.024741074
-0.064540356 0.035907928 0.035047784
-0.054871086 0.03444175 0.035071213
-0.0449678 0.034529876 0.03491528
-0.036045622 0.034919277 0.034842834
-0.024481505 0.038724087 0.034424298
-0.015043412 0.039021056 0.034900598
-0.0050604912 0.038971856 0.033993468
0.0054837815 0.037542444 0.034342732
0.014882732 0.035080045 0.034838844
0.022683138 0.03779139 0.034443855
-0.063543975 0.043576766 0.03522012
-0.055221405 0.048243687 0.036068548
-0.04575219 0.048646808 0.039249808
-0.036499612 0.048744194 0.039435931
0.026433475 0.044381458 0.036240879
0.034785639 0.047296587 0.031581722
0.042673223 0.048411261 0.031424273
-0.051080849 0.054235011 0.032330737
-0.04588341 0.054625712 0.037533816
-0.034663886 0.054437432 0.038429171
-0.027397459 0.055787873 0.037780229
0.02760322 0.052053764 0.038817286
0.034976307 0.055094086 0.034491908
0.044803537 0.055599071 0.031647488
0.050416134 0.05788482 0.03020202
-0.070887454 0.069442824 0.0311286
-0.064299829 0.067499019 0.033200514
-0.054875746 0.065585129 0.034560654
-0.047375295 0.063892409 0.037761852
-0.031980265 0.063739873 0.038937241
-0.027879648 0.06410443 0.038560368
0.036875829 0.064769112 0.036019899
0.043023769 0.064035095 0.030700676
0.050514098 0.0610459 0.030169901
-0.080548704 0.0789662 0.0306236
-0.074290834 0.075650968 0.034113552
-0.06612242 0.072898798 0.037672833
-0.055128604 0.071019046 0.039291009
-0.049405862 0.070815943 0.039550435
-0.030497 0.0710328 0.039791301
-0.0291641 0.070796572 0.039743666
0.037018936 0.074899435 0.036691315
0.041022941 0.075238563 0.031173067
-0.081611551 0.085694149 0.032248132
-0.076660909 0.08420556 0.037098173
0.037367281 0.084765218 0.036535937
0.040940359 0.084560476 0.031531509
-0.081932239 0.095209271 0.032314811
-0.076777562 0.095238492 0.037276804
0.036260981 0.095173836 0.035666384
0.040234882 0.092456795 0.030789712
-0.080929339 0.10596203 0.032743778
-0.075443514 0.10539744 0.036399107
-0.065852344 0.10733577 0.038514055
-0.054852434 0.10832711 0.038820617
-0.044830743 0.1082972 0.038843449
-0.035549063 0.10743579 0.038377147
-0.027352892 0.10898722 0.039070979
0.0094939303 0.109876 0.0399119
0.01600101 0.1095838 0.039621275
0.026011121 0.10635456 0.038367864
0.033315945 0.10425843 0.033735409
-0.091887675 0.11649461 0.035067022
-0.085939355 0.11152793 0.035069861
-0.063388102 0.11274143 0.03797897
-0.054767046 0.1156722 0.035947673
-0.045334317 0.11506218 0.033693079
-0.035122316 0.11506006 0.033353623
-0.024945246 0.11526267 0.034926884
-0.015441103 0.11669745 0.037613671
-0.0052774278 0.11840213 0.038615521
0.006116352 0.11698234 0.03849794
0.014855736 0.11548924 0.037098777
0.024994306 0.11453813 0.033876151
0.031249924 0.111587 0.031369463
-0.092343606 0.12491499 0.034762964
-0.060532749 0.129713 0.039690301
-0.053789482 0.12569049 0.036163349
-0.049219903 0.12512705 0.031154539
-0.021994149 0.120798 0.030938799
-0.01435845 0.12268623 0.032428093
-0.0047538662 0.12377194 0.033821058
0.0051933867 0.12384641 0.033565126
0.014333939 0.12244596 0.032767106
0.021381235 0.12113522 0.031242298
-0.09041106 0.13184161 0.034843225
-0.089559913 0.13653217 0.03499417
-0.06220587 0.13614005 0.037323374
-0.055862442 0.13453996 0.03366359
-0.086250156 0.14517462 0.035044547
-0.07635995 0.14922449 0.03887393
-0.06345088 0.14583874 0.03792353
-0.057895243 0.14536048 0.03288722
-0.0823806 0.15093364 0.032425407
-0.074699089 0.15232703 0.034141708
-0.065069944 0.15263712 0.034065172
-0.05822888 0.15205616 0.032252695
-0.062517174 0.036770895 0.042682871
-0.055175435 0.036083527 0.04481538
-0.045251831 0.036291167 0.043476269
-0.035096653 0.036133487 0.044891801
-0.025296515 0.03481986 0.046366885
-0.014294837 0.035024587 0.046678219
-0.005073824 0.036157552 0.046106722
0.0045650657 0.036404371 0.044355594
0.014482703 0.036876857 0.04294895
0.020719517 0.038619902 0.040927049
-0.061682235 0.042627882 0.042036287
-0.055020511 0.043730285 0.044255216
-0.045018874 0.043724991 0.04262042
-0.034890972 0.044716615 0.04420248
-0.026319198 0.048735794 0.047196075
-0.014012261 0.04705248 0.048565384
-0.0050174748 0.043996856 0.047941737
0.0053370125 0.043871079 0.04667414
0.015117788 0.045038044 0.044377465
0.021801786 0.044830751 0.041070309
-0.041503031 0.05842492 0.0402412
-0.03869516 0.058568083 0.040307302
-0.023246722 0.055372588 0.043504998
-0.017861264 0.054145552 0.048612032
0.016204538 0.054017328 0.047966182
0.024103802 0.05570564 0.043759484
0.030781964 0.058746964 0.040278066
-0.043058164 0.065582596 0.040858444
-0.036676142 0.065335192 0.041193452
-0.023452258 0.065157793 0.044735346
-0.01963518 0.062220544 0.049200278
0.018258199 0.063409269 0.049167965
0.025062785 0.065038905 0.044955131
0.031415977 0.065070547 0.040856477
-0.063983187 0.077034213 0.041238058
-0.054981954 0.075648338 0.042340294
-0.044976771 0.074809954 0.042373672
-0.035136264 0.074810028 0.041665882
-0.026710661 0.074742056 0.045139324
0.0198393 0.070011601 0.049762201
0.025545727 0.074978635 0.046588413
0.032014992 0.075572871 0.041775886
-0.071784712 0.085819058 0.04093229
-0.065183423 0.084791601 0.043618094
-0.054993104 0.084776111 0.044737201
-0.044995595 0.084683128 0.043602634
-0.03500358 0.084641434 0.042999327
-0.02809402 0.084916279 0.046905793
0.018521391 0.087962635 0.049372979
0.025553221 0.085336193 0.046884149
0.032612458 0.084916577 0.041975807
-0.07211931 0.094164312 0.041063391
-0.065106653 0.094358839 0.043235563
-0.054996986 0.094594188 0.044175651
-0.044989295 0.094522573 0.043130368
-0.034989581 0.094566092 0.043771874
-0.025427636 0.094934344 0.045595337
-0.015870923 0.09839876 0.047109097
-0.0049564447 0.099684566 0.049319122
0.0053446246 0.098840453 0.04882196
0.016091496 0.095545858 0.048191857
0.025121791 0.094952635 0.045169033
0.031844206 0.093519256 0.041376408
-0.080192797 0.109885 0.040848698
-0.076074325 0.10958006 0.041708913
-0.064152539 0.10228629 0.041293669
-0.055088695 0.10286099 0.041709434
-0.045080665 0.10309151 0.041293919
-0.034395203 0.10219879 0.041507188
-0.024540447 0.10428575 0.042393669
-0.015083027 0.10484077 0.043086484
-0.0045839306 0.10362384 0.044658694
0.0049622105 0.10470615 0.043697767
0.015117494 0.10443483 0.044225253
0.023418784 0.10270751 0.042325035
-0.091273867 0.11695886 0.04213747
-0.085090213 0.11443432 0.045225337
-0.075508095 0.11238561 0.046678808
-0.065354615 0.11553485 0.044829085
-0.059341699 0.119814 0.040479701
-0.013486645 0.11193244 0.041072693
-0.0048389961 0.11295546 0.041656774
0.0040190499 0.11255609 0.041224219
-0.09152554 0.124205 0.042359047
-0.086693183 0.12479009 0.047467247
-0.063870199 0.12574336 0.045553256
-0.058812656 0.12408835 0.040764302
-0.090209298 0.131023 0.040209599
-0.085755922 0.13530977 0.045271568
-0.073700853 0.13706669 0.048893198
-0.066728398 0.13520551 0.044194739
-0.082936548 0.14262381 0.042571783
-0.074743733 0.14441705 0.044189245
-0.067619257 0.14409555 0.042342655
-0.03151856 0.037600931 0.051163059
-0.025171386 0.036698323 0.052961912
-0.015896305 0.037136171 0.05138978
-0.031390328 0.041963439 0.050769486
-0.024533082 0.043639947 0.052544028
-0.016045254 0.04325312 0.051405773
-0.0044899639 0.048895314 0.050440434
0.004499529 0.048571989 0.050770283
-0.013766103 0.055978607 0.051522616
-0.0049981927 0.054771155 0.05355965
0.0050601726 0.054796826 0.053161345
0.011974829 0.055933699 0.051411077
-0.020807942 0.068258941 0.050946683
-0.01509756 0.06470184 0.053446867
-0.0049993042 0.064746946 0.056119423
0.0052585742 0.064598322 0.055629045
0.013878756 0.065847971 0.052247785
-0.022685703 0.076241799 0.05282471
-0.01509699 0.074481234 0.05577188
-0.0049977195 0.074606687 0.057939414
0.0052312938 0.074839287 0.056264888
0.015000656 0.075378001 0.053357057
0.020913044 0.075790718 0.050560482
-0.023521235 0.084910937 0.053776942
-0.014992299 0.084941417 0.057024647
-0.0049970066 0.08496692 0.057268091
0.005073911 0.08512532 0.056305155
0.014564085 0.084679119 0.052750424
0.021094929 0.082627334 0.05038356
-0.02191514 0.092120618 0.051823169
-0.014833977 0.09414462 0.053777445
-0.0049388953 0.095450491 0.053982791
0.0044847224 0.094648957 0.053106941
0.013265928 0.092205957 0.051774003
-0.074599735 0.11672895 0.051694673
-0.068395577 0.11716036 0.05156064
-0.082339123 0.12686446 0.051417157
-0.074880347 0.12488323 0.052641448
-0.068023488 0.12365205 0.051675417
-0.08148551 0.13266957 0.051114798
-0.075719208 0.13304263 0.051529888
