# .PCD v0.7 - Point Cloud Data file format
VERSION 0.7
FIELDS x y z
SIZE 4 4 4
TYPE F F F
COUNT 1 1 1
WIDTH 1312
HEIGHT 1
VIEWPOINT 0 0 0 1 0 0 0
POINTS 1312
DATA ascii
-0.045199275 0.09045133 -0.021140678
-0.011424422 0.1066812 -0.023891194
0.0086948276 0.1095174 -0.021258222
-0.053907037 0.15351269 -0.001631638
-0.071908504 0.13587373 -0.0059740338
-0.0084174871 0.106691 -0.023774246
-0.0033939481 0.10670823 -0.023513174
-0.047066391 0.073460609 0.041342728
-0.046051741 0.073494524 0.041826442
-0.045019507 0.07355535 0.042246565
-0.044008195 0.073582977 0.042597763
-0.043005109 0.073598683 0.042845447
-0.041998208 0.073614717 0.042921998
-0.041007221 0.073602319 0.042787891
-0.040011048 0.073600888 0.042604659
-0.039017081 0.073597431 0.042410508
-0.03802073 0.073605329 0.042343237
-0.037017167 0.073605955 0.042343177
-0.036016405 0.073621422 0.04239437
-0.035020769 0.07362783 0.042325124
-0.034021199 0.07360813 0.042087287
-0.033036709 0.073594272 0.041777186
-0.032057106 0.073568791 0.041337095
-0.031080186 0.073532254 0.040783759
-0.030106246 0.073510736 0.040329337
-0.029115617 0.07347846 0.039942078
-0.02811408 0.073491275 0.039870806
-0.027133346 0.073491514 0.040155023
-0.02622211 0.073496193 0.040849932
-0.0083789229 0.12720412 0.030369762
-0.026289523 0.12580231 0.020542542
-0.020400643 0.12954506 0.012258533
-0.019241095 0.18923447 -0.019248644
-0.047825336 0.16628183 0.006293457
-0.070863217 0.1674801 -0.016520185
-0.066491544 0.16331622 -0.015146444
-0.066792727 0.15788943 0.017637063
-0.016453147 0.07468456 0.054062396
-0.015448987 0.074720263 0.054519556
-0.014446139 0.074738204 0.054728024
-0.013453007 0.074737459 0.054704793
-0.01246506 0.07472837 0.054713376
-0.011425018 0.07479921 0.055038013
-0.010438681 0.074785262 0.055204093
-0.0094286203 0.074810624 0.055393271
-0.0084074736 0.074846774 0.055688523
-0.0073851943 0.074887753 0.05611448
-0.0063686371 0.07492581 0.056566101
-0.0053713918 0.074950337 0.056928702
-0.0043275952 0.075000167 0.057286099
-0.0033531189 0.074983567 0.057384014
-0.0023267269 0.075019509 0.057486251
-0.0013244748 0.075019419 0.057470128
-0.00032478571 0.075011075 0.057315335
0.00067144632 0.074997485 0.057027429
0.0016639233 0.074973375 0.056631736
0.0026584268 0.074937642 0.056132078
0.0036155581 0.074903995 0.05546451
0.004583478 0.074866325 0.054837894
0.0055596828 0.074879885 0.054718286
0.0065678954 0.074888289 0.0548505
0.0075733662 0.074904025 0.054911397
0.0085749626 0.074907541 0.054862387
0.0095787644 0.074891329 0.054621994
0.010565341 0.074878812 0.054308496
-0.019490063 0.11858854 0.03587582
-0.012410045 0.11873406 0.037753895
-0.016400039 0.11725533 0.037617274
-0.012614965 0.12418157 0.033164717
-0.074287623 0.17714339 -0.051536709
-0.01447022 0.11866462 0.036867004
-0.013427138 0.11871278 0.037420206
-0.011370897 0.11870986 0.038016886
0.0036791563 0.1174202 0.039202407
-0.018220842 0.13005552 0.010087192
-0.078844577 0.12313199 0.052414373
-0.070677698 0.12328032 0.055807725
0.014456511 0.13155359 0.014794257
-0.067392945 0.14995527 0.042386763
-0.072707087 0.12043568 0.055137344
-0.040670991 0.11971691 0.032237299
-0.0074115992 0.12017897 0.037543505
-0.069674611 0.12187549 0.05561782
-0.038738549 0.1211324 0.030926794
-0.092370421 0.12030056 0.028358378
-0.027400613 0.095194638 -0.030611744
-0.012357831 0.11732316 0.038464297
-0.088472635 0.10397187 0.019158604
-0.079820931 0.12593597 0.054164462
0.041989148 0.1009405 -0.0028325338
0.039666533 0.10643202 -0.0026903786
-0.064091265 0.15093702 -0.014653241
0.041283131 0.10647044 0.0052339882
-0.079735577 0.13167593 0.054792367
-0.073806286 0.13452724 0.054313123
0.045052588 0.093951315 0.015002072
-0.076132178 0.14568377 0.04715953
-0.083173156 0.10921669 0.027934121
0.040747225 0.09240371 -0.011773827
0.044278502 0.072694451 0.0226267
-0.012718141 0.16572338 -0.019001668
-0.059737384 0.12511912 -0.0065624956
-0.052630424 0.14642993 0.022838365
-0.094215572 0.12438649 0.020414855
0.043278515 0.099450856 0.019124014
0.043463349 0.099464536 0.018109558
0.044089317 0.099594742 0.0070729665
-0.0023926497 0.1067028 -0.023411965
0.044829845 0.09682712 0.0050241482
0.044799149 0.096811265 0.0070239902
0.044820428 0.096799582 0.0080205705
-0.074790746 0.16404077 -0.0096901413
-0.039873481 0.13003242 0.0032117106
0.034211755 0.1161069 0.022469409
-0.020962417 0.18699056 -0.015093913
-0.094146371 0.12710866 0.023419321
0.0051810741 0.1279569 0.03024346
-0.045451283 0.13348576 0.015927956
-0.033103287 0.12680981 0.021314535
0.0010297894 0.10216305 0.046341758
0.031500518 0.11738968 0.025812309
0.032711267 0.11551937 0.026198264
0.033272922 0.1145187 0.026371086
-0.043942571 0.13142738 0.014982147
-0.064229488 0.15475774 -0.0073474105
-0.072672457 0.15670922 0.030213967
-0.01239574 0.18120876 -0.029785344
-0.070758045 0.15151724 0.041189611
-0.0082681775 0.13235492 0.0089891646
-0.0094193816 0.13214031 0.0086207632
-0.054175198 0.15510607 0.021548755
-0.065154195 0.15800366 0.023850502
0.0022466779 0.093171239 -0.034258328
0.0012279749 0.093165517 -0.0344299
-0.060894847 0.066424042 0.032280058
-0.055199742 0.090385824 -0.020915622
-0.05419147 0.090384215 -0.020827813
-0.053184867 0.090385437 -0.020774351
-0.057047844 0.074844241 0.042329412
-0.056038857 0.074885219 0.042371474
-0.055048168 0.074870884 0.042213544
-0.053947568 0.074852943 0.042035237
-0.053054392 0.074878067 0.041987721
-0.052050292 0.074881673 0.042085446
-0.05088985 0.074921131 0.042460471
-0.049880087 0.074941546 0.042632714
-0.049018681 0.074961245 0.042705581
-0.04803586 0.074894786 0.042487353
-0.047034979 0.074923575 0.042409685
-0.046041369 0.074920714 0.042396434
-0.045021176 0.07496953 0.042537037
-0.044013023 0.074991047 0.042757619
-0.042991042 0.075033307 0.04304646
-0.041992009 0.075044811 0.043140143
-0.040995002 0.075049579 0.043098859
-0.040005207 0.075042933 0.042924691
-0.039008498 0.075017333 0.042704366
-0.038020611 0.07503289 0.04256805
-0.037023783 0.075024873 0.042418085
-0.036018729 0.075024843 0.042380318
-0.035024881 0.075031132 0.042347282
-0.034026027 0.075024515 0.042209353
-0.03303647 0.075007856 0.041907012
-0.032100141 0.07499975 0.041496363
-0.031092048 0.074951679 0.040892441
-0.030123055 0.07495147 0.040502511
-0.029104292 0.074930638 0.040256418
-0.028084934 0.074945241 0.040355638
-0.027168214 0.074908197 0.040736865
-0.025964379 0.07513392 0.042577449
-0.017227829 0.12740555 0.024782399
-0.064351678 0.15599722 0.032725923
0.01190275 0.13236666 0.016794002
-0.04593581 0.13416904 0.018670453
-0.071737617 0.1678791 -0.016794467
-0.065877914 0.16240868 -0.014957184
0.0052208304 0.12675464 0.031706199
-0.089152008 0.12566337 0.005201282
-0.016472876 0.076081604 0.054358382
-0.015460908 0.076117992 0.054809593
-0.01444751 0.076141924 0.05499661
-0.013435781 0.076169401 0.055176519
-0.012416065 0.076202929 0.055467315
-0.011416197 0.076214135 0.055710014
-0.010414183 0.076223463 0.055801257
-0.0094047785 0.076241136 0.055852786
-0.0084156394 0.076237589 0.055844225
-0.0074160695 0.076256156 0.056078471
-0.0063725114 0.076312453 0.056567341
-0.0053791404 0.076339841 0.056959257
-0.004360199 0.07637319 0.057267509
-0.0033531189 0.076393425 0.057497025
-0.0023286343 0.076416641 0.0576263
-0.0013267398 0.076419055 0.057623416
-0.00032293797 0.076423019 0.057544179
0.00067144632 0.076418996 0.057371132
0.0016760826 0.076392889 0.057005815
0.0026569366 0.076362461 0.056479365
0.0036221147 0.076316446 0.05570928
0.0045759082 0.076270044 0.054932982
0.00556916 0.076276243 0.054896668
0.0065704584 0.076300204 0.055055693
0.0075705051 0.076305509 0.055041097
0.0085721016 0.076308787 0.054974981
0.0095610023 0.076304317 0.05479195
0.010547161 0.076291502 0.05449529
-0.027643859 0.11842471 0.032584202
-0.018473804 0.11861086 0.036211345
0.0066559911 0.11742961 0.038484946
-0.017432511 0.11729148 0.037364762
-0.015386581 0.11724913 0.037680298
-0.017464101 0.11863276 0.036429755
-0.016463757 0.11865234 0.03652703
-0.015457034 0.11865112 0.036595583
0.0026875734 0.11741814 0.039369598
0.0017020106 0.11743793 0.039571781
0.0024383068 0.13364255 0.015219916
0.0016621947 0.11881611 0.038820915
0.0026521683 0.11880818 0.038642026
-0.065311253 0.1519286 0.039816231
-0.073724121 0.12042481 0.055081181
-0.030704796 0.11976805 0.031192465
-0.0084047914 0.12012988 0.037527926
-0.068674535 0.1218721 0.055369951
-0.039730549 0.12107041 0.03090659
-0.065013647 0.17465498 -0.053521149
-0.041936576 0.1302326 0.0025552511
-0.028551936 0.15721521 -0.002983233
-0.064450622 0.16988562 -0.057793103
-0.078785151 0.12598431 0.05450768
0.0083687305 0.1257284 0.032624293
-0.087241471 0.14355716 0.012127763
-0.093582988 0.1284557 0.018401036
0.031345248 0.12022039 0.020158634
-0.038955688 0.17667802 -0.0035557728
-0.074787259 0.13454401 0.054522291
-0.072113097 0.14431649 0.048357479
-0.077114195 0.14563116 0.046912111
0.041218162 0.092446595 -0.010823278
0.026424885 0.10405689 0.039536156
0.015482605 0.094557077 0.049774047
-0.065372586 0.1683034 -0.039530605
-0.06628406 0.16196118 -0.047530934
0.044121325 0.093839407 0.021050788
0.036553621 0.11192369 -0.0015319679
-0.089074641 0.1421847 0.03221184
-0.02809006 0.095200032 -0.029560538
-0.075438023 0.14619058 -0.0054798257
0.044050276 0.099574625 0.009076545
0.044050395 0.099554121 0.010072109
0.044100404 0.099578768 0.0080710743
0.035942554 0.10907659 -0.0065204706
-0.0055485368 0.13282707 0.012686792
-0.07314992 0.15856788 0.0012455601
-0.024967968 0.18645404 -0.011952111
-0.093509585 0.12166905 0.026405957
-0.067694396 0.15687558 0.0073364321
-0.075709194 0.15753818 0.014912933
-0.05477643 0.1555135 0.024203079
0.028865099 0.12065974 0.024951922
-0.040355742 0.17408076 0.00019344501
-0.057190478 0.15432629 0.033507109
-0.07483238 0.15722251 0.026683085
0.010462761 0.12821266 0.029031044
-0.04514122 0.13241842 0.020405212
-0.0046567917 0.13300231 0.010141418
-0.0058205724 0.13283458 0.0097698402
-0.0070436001 0.13260078 0.0093787834
-0.036245942 0.17635208 -0.0012591407
-0.0076770782 0.10185617 0.047023803
-0.017851174 0.129666 0.004491983
-0.019119263 0.1292851 0.0040848907
-0.079650581 0.072315067 0.015437657
-0.090759486 0.11484551 0.020580368
-0.061055124 0.076226801 0.042237319
-0.060033321 0.076270998 0.042555407
-0.059008062 0.076324821 0.042852782
-0.058014929 0.076316386 0.043121591
-0.056999981 0.076358676 0.043299139
-0.056006253 0.076351911 0.043277744
-0.055014074 0.076329261 0.043136816
-0.054021418 0.076313883 0.042983394
-0.053021729 0.076332688 0.042912833
-0.052008867 0.076377869 0.043089382
-0.05099982 0.076393276 0.043311588
-0.049979031 0.076462775 0.043575205
-0.048985481 0.076423466 0.04361701
-0.04799211 0.076388747 0.043508694
-0.046997726 0.076365709 0.043240741
-0.046009362 0.076376915 0.043040808
-0.045018256 0.076390415 0.042812645
-0.044010639 0.07640779 0.042858239
-0.043003082 0.076428652 0.04310216
-0.041990697 0.076456606 0.043270424
-0.040987253 0.076472789 0.043351032
-0.039992929 0.076478332 0.043293353
-0.038998425 0.076451808 0.043083526
-0.03800714 0.076435447 0.042796336
-0.037027538 0.076425016 0.042464137
-0.036034107 0.07641986 0.042279914
-0.035030007 0.076422274 0.042270221
-0.034035861 0.076427966 0.042199336
-0.033047915 0.076423347 0.042008046
-0.032064855 0.076395929 0.041586421
-0.031075537 0.076360136 0.041073781
-0.030094504 0.076349318 0.04074052
-0.02908206 0.07637772 0.040598884
-0.028143823 0.076308191 0.040668473
-0.027305543 0.076253951 0.041176479
-0.068814129 0.15799075 0.024171112
-0.056452572 0.15548477 0.029407302
-0.038176477 0.12394464 0.028506227
-0.089366198 0.15317309 0.019561084
-0.063137949 0.1578283 0.017324781
-0.016631246 0.13054091 0.013445723
-0.067850262 0.15793097 0.017310314
-0.015205264 0.13015541 0.019623019
-0.017475247 0.077465057 0.05427736
-0.016474843 0.077489614 0.054757752
-0.015459418 0.077520311 0.055075344
-0.014442801 0.077548206 0.055245928
-0.013423443 0.077579737 0.05554083
-0.012403667 0.077614844 0.055830233
-0.011405468 0.077627122 0.056078717
-0.010412812 0.077630073 0.056213282
-0.0093886852 0.077664107 0.056328915
-0.00839746 0.077664196 0.056321487
-0.0074005723 0.077666759 0.0562944
-0.0064058304 0.077676862 0.056417905
-0.0053828359 0.07772094 0.056837939
-0.0043690205 0.077753544 0.057154417
-0.0033462644 0.077782929 0.057440348
-0.0023481846 0.077801764 0.057579868
-0.0013330579 0.077813894 0.057637326
-0.00032633543 0.077816099 0.057584576
0.00067049265 0.077809334 0.057400398
0.0016701818 0.077794671 0.057121344
0.0026488304 0.077772319 0.056749579
0.0036222339 0.077726394 0.055952907
0.0045868158 0.077664614 0.054985266
0.0055601597 0.077677667 0.054906026
0.0065648556 0.077678174 0.054901913
0.0075608492 0.077688336 0.054941669
0.0085625052 0.077692747 0.054884762
0.0095568895 0.077686131 0.054709591
0.010555804 0.077676088 0.05444001
0.011525393 0.077649355 0.053998061
-0.0002835393 0.11744937 0.039816558
-0.0022825003 0.11741257 0.039732952
-0.0255059 0.11566642 0.035219654
-0.0043080449 0.11740232 0.03935926
-0.028638303 0.11839846 0.032605045
-0.029642642 0.11839375 0.032527037
-0.031646907 0.11841244 0.03253305
-0.032644033 0.11838025 0.032549769
0.0076273084 0.11739492 0.038252387
-0.010375857 0.11874029 0.038131677
-0.0083330274 0.11872306 0.038601048
0.00067067146 0.11881402 0.038986497
-0.086082578 0.15267581 0.029856259
-0.08836928 0.13665959 0.042163342
-0.029708982 0.11971769 0.031098569
-0.012447596 0.12011924 0.036999166
-0.067685306 0.12187633 0.055157535
-0.040748298 0.12110218 0.03074199
-0.017016172 0.13036931 0.010472693
-0.066641927 0.17620766 -0.05043637
0.0145666 0.094552726 0.050226279
-0.066494823 0.1619557 -0.049520746
-0.077783704 0.12598991 0.054606646
0.0073718429 0.12571007 0.032654595
0.03835988 0.092240989 -0.014677962
-0.071962565 0.09700492 -0.01388911
-0.024526834 0.1228357 0.028387288
-0.0038745999 0.13297126 0.0075624343
-0.072821915 0.13453549 0.053933777
-0.071021914 0.14012733 0.050560363
-0.016730905 0.12889519 0.022051683
-0.06061852 0.037359953 0.044588901
0.039981306 0.092358679 -0.012760082
-0.056627214 0.12305602 -0.0085100997
-0.04313153 0.17010248 0.0039933678
-0.092868119 0.12165436 0.0283916
0.041325212 0.10646543 0.0082322415
-0.088414192 0.099927634 0.023159405
-0.086071789 0.14076418 0.0050851703
-0.063578546 0.1572614 -0.024646768
-0.077188343 0.1657376 -0.033426099
-0.093767375 0.12846649 0.020403182
-0.049233675 0.14195809 0.01265013
-0.049517393 0.16886646 0.00042470917
-0.048940837 0.16408345 0.0078125764
-0.018383801 0.11587918 0.03812927
0.040571988 0.10780895 0.011276412
-0.074018538 0.16442604 -0.04153803
-0.063925266 0.15734616 0.011366127
-0.016615331 0.12598643 0.027862329
0.026681483 0.12270963 0.024278291
-0.039263546 0.17413613 0.00056218542
-0.015971422 0.12954429 0.020840254
-0.02627629 0.12403736 0.024900991
-0.076245189 0.15672797 0.0075596534
-0.0023261309 0.13330764 0.010884472
-0.003491044 0.13315994 0.010513354
-0.039770544 0.17583811 -0.0024157148
-0.038512945 0.17615211 -0.0020241551
-0.037357509 0.17627777 -0.0016586594
-0.015254438 0.13052097 0.0053275153
-0.01658982 0.13007593 0.004895715
0.000890553 0.10207549 0.046690345
-0.076327443 0.16869463 -0.019668499
-0.064057708 0.090080857 -0.017453881
-0.062032044 0.07767269 0.042636298
-0.061036468 0.077674955 0.042893454
-0.060007334 0.077725619 0.043183222
-0.059010565 0.077732503 0.043437049
-0.057990611 0.077771068 0.043761395
-0.056984067 0.077791631 0.043979224
-0.055980623 0.077805698 0.044064835
-0.054981649 0.077816099 0.044005662
-0.053988159 0.077794522 0.043872096
-0.052994192 0.077783465 0.043711532
-0.051995516 0.077794105 0.043655589
-0.050981104 0.077842414 0.043808065
-0.049970746 0.077863097 0.044024728
-0.048971951 0.077857703 0.044162478
-0.047966301 0.077880323 0.044220001
-0.046973586 0.07787478 0.044051319
-0.045987785 0.077842325 0.043655068
-0.045010746 0.07780984 0.043097645
-0.044020057 0.077810973 0.042885642
-0.043007255 0.07783249 0.043087289
-0.041983187 0.077867627 0.043362983
-0.040975511 0.077891648 0.04356217
-0.039985061 0.077897429 0.04356562
-0.038995445 0.077908814 0.043477044
-0.038006365 0.077874571 0.043128286
-0.037038684 0.077872932 0.042733401
-0.03603214 0.07784465 0.042535253
-0.035040855 0.07783851 0.042342909
-0.034049749 0.07783246 0.042165883
-0.033061087 0.077827752 0.041989475
-0.03206867 0.077811331 0.041711636
-0.031080842 0.077799559 0.041405
-0.030088723 0.077772796 0.040995486
-0.029104888 0.077756554 0.040885888
-0.028208911 0.077708721 0.041143246
-0.073661298 0.16847438 -0.017357776
-0.074702263 0.16846821 -0.017729664
-0.076030612 0.16800712 -0.018149467
-0.0073234439 0.12717059 0.030706262
-0.017905474 0.13017592 0.013045589
-0.065292478 0.16141903 -0.014777141
-0.034641802 0.17926325 -0.0050156172
-0.080900699 0.15656012 0.02200577
-0.018446505 0.078899771 0.054524787
-0.017462313 0.078892887 0.054903403
-0.016445577 0.078925401 0.055213053
-0.015447557 0.078933537 0.055439495
-0.014451206 0.078936547 0.055561483
-0.0134238 0.078981876 0.055810269
-0.012422085 0.078992784 0.055895731
-0.011404693 0.079022974 0.056203023
-0.010406435 0.079037786 0.05644992
-0.0094085336 0.079078853 0.056648325
-0.0083831549 0.079083472 0.056822792
-0.0073850155 0.079087198 0.056790859
-0.0063819289 0.079095364 0.056717493
-0.0053825974 0.079098582 0.056681197
-0.0043817163 0.079126418 0.056932151
-0.0033646226 0.079158723 0.057242572
-0.0023648143 0.079186827 0.057385169
-0.0013504624 0.079191238 0.057416081
-0.00034481287 0.079194188 0.057358384
0.00065517426 0.079187453 0.057272062
0.0016627312 0.079180986 0.057034954
0.0026558638 0.07915923 0.056640938
0.0036196113 0.079124242 0.056078676
0.0045641661 0.079066455 0.055161789
0.0055607557 0.0790447 0.054713771
0.0065436363 0.079046965 0.054626536
0.0075404644 0.079054147 0.054655541
0.0085466504 0.079067618 0.054583665
0.009542644 0.079061955 0.054488808
0.010533571 0.07905373 0.054301076
0.01151526 0.07903102 0.053888738
-0.038614511 0.11839673 0.033223867
-0.0012782812 0.11740342 0.039779946
-0.026512861 0.11566961 0.035153523
-0.0275172 0.11567184 0.035083868
-0.0032998323 0.1174351 0.039597005
-0.037614822 0.11841998 0.032853536
-0.036638021 0.11836237 0.032610692
-0.03564626 0.11838028 0.032469109
-0.030640841 0.11838046 0.032561421
-0.024641454 0.11847183 0.03297602
-0.0093443394 0.11871105 0.038388979
0.0036460161 0.11881322 0.03847976
0.042115808 0.1023173 -0.00081048533
-0.026465416 0.12395307 -0.0068464521
0.0372293 0.1091381 -0.0035787597
-0.013474464 0.12012377 0.036694579
-0.066703439 0.12186977 0.054742977
-0.042756319 0.12103474 0.030411256
0.0013289452 0.13358903 0.014867391
-0.06322974 0.15724832 -0.01965818
0.040054142 0.10487095 0.023314605
-0.084356099 0.1146113 0.0039125625
-0.076775312 0.12600765 0.054682739
0.0063716769 0.12569082 0.032682531
-0.083727658 0.11254629 0.036203574
-0.093973726 0.12303483 0.025416661
-0.078719795 0.13169169 0.055224173
0.023131609 0.12683856 0.020346574
-0.073957682 0.14013186 0.051321935
-0.071987599 0.14014548 0.050883479
0.015360475 0.13119969 0.015074993
-0.072585702 0.16020155 -0.047610521
-0.070374668 0.15750328 0.028021881
-0.086517334 0.097089976 0.0030814949
-0.037246108 0.17015727 0.0014591273
-0.064288855 0.16201568 -0.034633748
-0.03929311 0.17609257 -0.008970039
0.031235576 0.11666277 -0.005712932
0.035716116 0.11046785 -0.0054946188
0.036156774 0.1104961 -0.0045199785
-0.084888428 0.11331147 0.029027928
-0.0032331944 0.1279915 0.030525418
-0.0022833347 0.12773272 0.030823482
-0.017920673 0.12566814 0.027493848
0.025268435 0.12416643 0.023830891
0.011378586 0.12530127 0.03218805
-0.059062243 0.15739197 0.018581443
0.0054177046 0.13368258 0.01334818
0.0043750405 0.13372317 0.013018564
-0.042752028 0.17446901 -0.0033304505
-0.04114306 0.17532392 -0.0028461888
-0.011496723 0.13156366 0.0065338891
-0.012775064 0.13120669 0.0061217211
-0.013982713 0.13090888 0.0057353582
-0.07210508 0.15795982 0.023180293
-0.062339664 0.15568599 0.033338964
-0.047076583 0.13383892 0.0066793021
-0.010492921 0.10018855 0.04916501
-0.06304884 0.079055369 0.042871222
-0.062028825 0.079097211 0.043192279
-0.061015785 0.079124004 0.043391846
-0.059997439 0.079155475 0.043571178
-0.058970392 0.079199433 0.043867618
-0.057959259 0.079227835 0.044215012
-0.056958139 0.079243064 0.04446419
-0.055963635 0.079245836 0.044586658
-0.054959416 0.07926017 0.044668823
-0.053959787 0.079265296 0.044626322
-0.052971303 0.07922864 0.04437517
-0.051977932 0.079231799 0.044188894
-0.050972402 0.079273313 0.044194374
-0.049963892 0.07928592 0.044436801
-0.048953593 0.079299212 0.044684857
-0.04794842 0.079319209 0.044751294
-0.046949804 0.079308391 0.044599637
-0.045973897 0.079289854 0.044138934
-0.045010626 0.079262197 0.0435399
-0.044024229 0.079210132 0.042919997
-0.043007493 0.07923618 0.043008685
-0.041992307 0.079265922 0.043368429
-0.040980458 0.079289615 0.04359125
-0.039982915 0.079304874 0.043706439
-0.038988054 0.079312086 0.043666266
-0.038003802 0.079314768 0.043441445
-0.037020445 0.079303771 0.043153018
-0.036034107 0.079274148 0.042762768
-0.035052478 0.079262763 0.042445194
-0.034061193 0.079241216 0.042170778
-0.03307116 0.079224735 0.041880734
-0.032077372 0.07920742 0.041598223
-0.031076789 0.079188287 0.041356049
-0.030069947 0.079212487 0.0411801
-0.029151559 0.079142004 0.041148666
-0.028223515 0.079173267 0.041895635
-0.071508735 0.1579721 0.017622046
-0.067373931 0.087628871 0.04470567
-0.066182137 0.1571444 0.029283134
-0.079877734 0.1566489 0.015098546
-0.067112863 0.16421974 -0.015336191
-0.033335924 0.17966534 -0.004613366
-0.092881531 0.13120788 0.018359445
-0.090465367 0.11758465 0.034267038
-0.018439174 0.080313802 0.055295438
-0.017434776 0.08033511 0.055624381
-0.016440809 0.080336481 0.055871688
-0.015416622 0.080381185 0.056141131
-0.014410436 0.080398262 0.056194998
-0.013424456 0.080380261 0.056091607
-0.012422383 0.080388278 0.056027479
-0.011414528 0.080409318 0.056239158
-0.010398805 0.080439001 0.056543119
-0.0093864799 0.080466002 0.056871347
-0.0083987713 0.080493271 0.057087138
-0.0073700547 0.080502152 0.057126753
-0.0063774586 0.080497772 0.056989118
-0.0053895712 0.080488324 0.056740142
-0.0043950081 0.080503076 0.05673705
-0.0033845305 0.080528498 0.056926511
-0.0023828149 0.08055371 0.05702997
-0.0013709068 0.080555767 0.057065189
-0.0003657341 0.080552101 0.057077944
0.00063198805 0.080548048 0.056915455
0.0016329288 0.080544055 0.056675844
0.002628386 0.080524623 0.056384042
0.0036206245 0.080495566 0.055901039
0.0045858622 0.080464691 0.055352151
0.0055548549 0.080427766 0.054723583
0.006536603 0.080420375 0.054433957
0.0075260997 0.080420643 0.054334313
0.00852561 0.080423176 0.054216426
0.0095207691 0.080423802 0.054135956
0.010513842 0.08041814 0.05396045
0.011501491 0.080405027 0.053674631
0.018516541 0.11735085 0.034932368
0.014544725 0.11736614 0.035518311
-0.028524876 0.11567008 0.035014931
-0.03154999 0.11566153 0.034673579
0.0046697259 0.11741927 0.03903665
-0.0062991977 0.11738402 0.039545968
-0.042628348 0.11834711 0.033229142
-0.034648657 0.1183916 0.032433435
-0.033645451 0.11837354 0.032474525
-0.023642302 0.1185334 0.033603605
-0.0043363571 0.11874929 0.038648561
0.0046333671 0.11879936 0.03829205
0.037182212 0.11196706 0.00043341331
-0.084934652 0.11063486 0.024014728
-0.02468276 0.11984187 0.032069825
-0.011411965 0.12009495 0.037268922
-0.075081497 0.14431635 0.048515067
-0.043760478 0.12102309 0.030327102
0.0049974918 0.13364756 0.014623333
-0.078622371 0.15877223 -0.010283636
0.038853288 0.11054572 0.016385712
-0.044921458 0.12374887 0.027090684
-0.075764805 0.12602744 0.054740638
0.0053679943 0.12570894 0.03262895
-0.049731791 0.14192897 0.016680857
-0.088404 0.10396442 0.01316154
-0.077750534 0.13172066 0.055396348
0.0076170564 0.13321465 0.016848544
-0.07297495 0.14012495 0.051144071
0.0019512773 0.13370359 0.0094350968
-0.017671287 0.12942669 0.0031094234
-0.07854259 0.15133247 0.039381787
-0.035013735 0.17759348 -0.012153415
-0.051787138 0.15966231 0.011007354
-0.075470626 0.17854914 -0.051458694
-0.081779301 0.098187804 -0.0051410608
0.028962731 0.11950776 0.026408989
-0.027721405 0.18237336 -0.0071970616
-0.06832692 0.15730774 0.010000159
-0.068010777 0.15707663 0.0086720604
0.023763716 0.12543392 0.023358354
-0.064103127 0.15752581 0.027042245
-0.086570144 0.15455472 0.017448094
0.0064629316 0.13362399 0.013676882
-0.077049345 0.1023306 0.037072346
-0.044486701 0.17326866 -0.0038315393
-0.0090614557 0.13209724 0.0073128939
-0.010278285 0.13183042 0.0069234818
-0.079076827 0.15716192 0.021096841
-0.076730371 0.15747461 0.021796495
-0.075560957 0.15761244 0.022143036
-0.09323743 0.1189836 0.020376498
-0.054889619 0.15580952 0.021313954
-0.081716686 0.15555385 0.011667812
-0.027800679 0.091602236 -0.034842573
-0.063010156 0.080533326 0.043756358
-0.061994612 0.080569386 0.043937746
-0.061003327 0.080558628 0.043927256
-0.060011625 0.08055073 0.043924563
-0.058979511 0.0806095 0.044170711
-0.057958126 0.080644071 0.044489969
-0.056967914 0.080649555 0.044787515
-0.05592078 0.080719411 0.045138765
-0.054922044 0.08073926 0.045377158
-0.053932071 0.080731124 0.045376647
-0.052939296 0.080729693 0.045198068
-0.051950037 0.080702901 0.044932324
-0.050957263 0.080703378 0.044740349
-0.04995507 0.080725938 0.044788726
-0.048948765 0.080725133 0.044935375
-0.047947407 0.080748498 0.044972174
-0.046942592 0.080715179 0.044775672
-0.04598695 0.080733567 0.044461511
-0.045027077 0.080696046 0.043907613
-0.044012725 0.080617458 0.043106254
-0.043033481 0.080618203 0.04284751
-0.042014241 0.080649585 0.043151729
-0.041003466 0.080673844 0.043401327
-0.039991915 0.080695927 0.043588519
-0.038987458 0.080714345 0.043644767
-0.038034141 0.080710858 0.043419875
-0.037010431 0.080694616 0.043245561
-0.036031663 0.080704987 0.042999804
-0.035025537 0.080686092 0.042902626
-0.034050345 0.080676407 0.042566929
-0.033051789 0.080629259 0.042073738
-0.032078683 0.080622077 0.041723631
-0.031085312 0.080607086 0.041420732
-0.030108631 0.080578744 0.041232012
-0.029150665 0.080593258 0.041643836
-0.028116882 0.080693245 0.042813845
-0.074853092 0.15674087 0.029572176
-0.059230089 0.15692466 0.025676128
-0.03595221 0.17884621 -0.0054303948
-0.03218776 0.17989942 -0.0041441489
-0.021190524 0.092350513 0.052084215
-0.007995069 0.13156143 0.021870105
-0.084212273 0.11061966 0.025975181
-0.088641703 0.102615 0.012181185
-0.018427134 0.08173576 0.055916384
-0.017436981 0.08174172 0.05629091
-0.016396224 0.08180052 0.056657694
-0.015388191 0.08182925 0.056815751
-0.014406621 0.081790775 0.056653079
-0.01341933 0.081781566 0.056363598
-0.01241225 0.081798464 0.056216724
-0.011415482 0.081803739 0.056369841
-0.01038897 0.081843227 0.056760766
-0.0093919635 0.081862241 0.057024457
-0.0083727241 0.081883997 0.057173073
-0.0073775649 0.081888378 0.057207435
-0.0063767433 0.081891924 0.057101905
-0.0053864121 0.081882179 0.056849919
-0.0043959022 0.081879348 0.056615688
-0.0034028292 0.081885338 0.056560859
-0.0023997426 0.08190015 0.056629263
-0.0013930202 0.081905693 0.05666893
-0.00039410591 0.081908345 0.05654677
0.0006056428 0.081905216 0.056462273
0.001606226 0.081901997 0.056319974
0.0026059151 0.081888139 0.056054544
0.0035820603 0.081879079 0.055828616
0.0045834184 0.081843793 0.05537641
0.0055543184 0.08182168 0.054939024
0.0065420866 0.081804603 0.054564402
0.0075269938 0.081796616 0.054281831
0.0085214376 0.081789643 0.054024175
0.0095117092 0.081788629 0.053822994
0.010496736 0.08178246 0.053616405
0.01149261 0.081775278 0.053358383
0.016526639 0.11733729 0.035356879
0.015538156 0.11736158 0.035456307
-0.029533267 0.11567727 0.034953486
-0.030536294 0.11565173 0.034853689
-0.0053024292 0.11737028 0.039350435
-0.0093144178 0.11735466 0.039183743
-0.010342121 0.11736995 0.038908884
-0.04062134 0.1184009 0.033316296
-0.025647104 0.11843073 0.032618392
-0.02260983 0.11855963 0.034304202
-0.0053480268 0.11876595 0.038506329
0.0075939894 0.11878166 0.03740108
0.038608491 0.10918295 -0.0006281659
-0.033746481 0.18014051 -0.006161524
-0.025711775 0.11985698 0.031657383
-0.010411143 0.12010959 0.037359945
-0.04207474 0.16713338 0.0052838735
-0.041761398 0.12110409 0.030546593
-0.077214032 0.15733221 0.023091566
-0.072026074 0.14155617 0.050042946
-0.023458362 0.16118139 -0.0028116498
-0.045841694 0.12381545 0.028072415
-0.074733645 0.12605131 0.054989532
0.0043672919 0.12568966 0.03265851
-0.086079925 0.10930291 0.010063243
-0.043400705 0.1271247 -0.0074486937
-0.07673648 0.13173336 0.055486381
-0.07029593 0.14854768 0.044412926
-0.028580427 0.11705232 0.033890314
-0.092855901 0.12436318 0.012348703
0.011739373 0.13258132 0.013934166
-0.079551309 0.15129101 0.03890118
0.04444778 0.092633575 -0.0019778851
0.023232639 0.12518668 0.024589071
-0.081770092 0.1091634 0.029874394
-0.027900279 0.15762928 -0.0032096952
-0.027616382 0.18468811 -0.010039343
0.016648054 0.12477183 0.029601881
-0.072967798 0.15278342 0.039049748
-0.043311179 0.12752408 0.021067165
0.0204615 0.12742433 0.022308148
0.022980273 0.12601113 0.023104373
-0.041521072 0.1281147 0.020146547
-0.0025593042 0.12988159 0.027856488
0.0084964037 0.13335776 0.014315547
-0.029003143 0.12252301 0.027014904
0.0014751554 0.13361949 0.010687818
0.00042611361 0.13361111 0.010352805
-0.030493736 0.11994618 0.03096704
-0.080358177 0.15679377 0.020717822
-0.083809793 0.10781756 0.0019528065
-0.082471848 0.11798105 -0.0002656877
-0.090994537 0.11760509 0.037295818
0.025016308 0.12603599 0.016732739
0.025789678 0.12544277 0.016980272
-0.06505686 0.082017332 0.043875657
-0.064012647 0.081944436 0.044228546
-0.062968433 0.082026392 0.044604618
-0.061973333 0.082021475 0.044729918
-0.060970724 0.082035929 0.0446532
-0.059991777 0.081993192 0.044445083
-0.058980525 0.082023233 0.044470273
-0.057963908 0.082051903 0.04464376
-0.056944132 0.082082868 0.044984989
-0.055932879 0.082113206 0.0453372
-0.054926217 0.082140177 0.045708712
-0.053900838 0.082194775 0.045946419
-0.052913308 0.08219102 0.045952752
-0.051929891 0.082173228 0.045697324
-0.050941646 0.082165241 0.04534414
-0.04994452 0.082110643 0.045047462
-0.04896009 0.082142144 0.045006074
-0.047948182 0.082124174 0.044939376
-0.046955764 0.082137972 0.044852793
-0.045962214 0.082120419 0.044569105
-0.045009553 0.082123786 0.044164389
-0.044018269 0.082068741 0.043401107
-0.043028533 0.082023829 0.042903319
-0.042037308 0.082027614 0.042890508
-0.041036725 0.082042724 0.042948011
-0.040028155 0.082066447 0.043165773
-0.039027333 0.082078606 0.043283008
-0.038002729 0.082105041 0.043368451
-0.036999345 0.08213377 0.043580666
-0.03600204 0.082151592 0.043656051
-0.035021424 0.082152754 0.043465912
-0.034044266 0.082111925 0.042943273
-0.033047616 0.082053512 0.042336088
-0.032072425 0.082019776 0.041782241
-0.031075597 0.082044005 0.041607633
-0.030117095 0.081989557 0.041402049
-0.029162407 0.082025319 0.04204607
-0.028039396 0.082184255 0.043661118
-0.059859395 0.15749976 0.021188684
-0.086923599 0.15406388 0.024689864
-0.085470796 0.15458071 0.02506786
-0.011605918 0.13087186 0.020751791
-0.026417613 0.12737289 0.016155252
-0.084541023 0.11061788 0.025001079
-0.029611111 0.12398344 -0.0067334678
-0.024407148 0.18654542 -0.016685547
-0.018411279 0.083143502 0.05627292
-0.017403662 0.083174884 0.056741208
-0.016387403 0.083205432 0.057033144
-0.015387416 0.083218902 0.057115093
-0.014394879 0.083212823 0.056956723
-0.013403416 0.083180338 0.056514073
-0.0124228 0.083180726 0.056289505
-0.011409521 0.083207488 0.056610774
-0.010408282 0.083229512 0.056857876
-0.0093980432 0.083250552 0.05705753
-0.0083800554 0.083267927 0.057188563
-0.0073809624 0.083274394 0.057164304
-0.0063841343 0.083275795 0.057041824
-0.0053957701 0.08326456 0.056803532
-0.0044152141 0.083242327 0.056326285
-0.0034176707 0.083248436 0.056289881
-0.0024206638 0.083263159 0.056310508
-0.0014142394 0.083267927 0.05634008
-0.0004119873 0.083274603 0.056321688
0.00058656931 0.083273828 0.056231145
0.0015873313 0.083267063 0.056091338
0.0025885105 0.083268881 0.056040931
0.0035840869 0.083262682 0.055872019
0.0045750141 0.083246619 0.055598356
0.0055605769 0.083235085 0.05529692
0.006550014 0.083223343 0.055022646
0.0075474381 0.08319816 0.054660551
0.0085155368 0.08319959 0.054306105
0.0095136762 0.083177358 0.053946808
0.01050806 0.083158553 0.053563569
0.034626007 0.11606792 0.02120162
-0.052494884 0.11694187 0.035586692
-0.021511376 0.1172024 0.036006033
-0.022572577 0.11720386 0.035334878
-0.0083060861 0.11737156 0.039395072
0.0086145401 0.11739528 0.037852749
-0.023603976 0.1171816 0.034633659
-0.0022517443 0.11603796 0.040375024
-0.035601497 0.11697063 0.033311673
-0.026654541 0.11844987 0.03256328
-0.021577477 0.11858359 0.034881573
-0.006336987 0.11872324 0.038609818
0.0095532537 0.11875802 0.036659494
-0.07891348 0.10896516 -0.0042292494
-0.074738264 0.12048766 0.054725513
0.041236162 0.093842715 -0.009808505
-0.0093941689 0.12009686 0.037528388
-0.015718341 0.16426694 -0.010423349
-0.044773519 0.12103868 0.03002027
-0.011671722 0.12716523 0.029372778
-0.071126997 0.14433911 0.048089247
0.00078803301 0.13355294 0.0090609845
0.025428236 0.12552887 0.018269923
-0.073712558 0.12606692 0.055271357
0.0033354163 0.12579268 0.032608546
-0.084383696 0.10648799 0.0019857381
-0.088571906 0.12702939 0.0031744093
-0.075730652 0.13173327 0.055530459
-0.092092305 0.12301558 0.041345131
-0.07779637 0.12316895 0.053176295
-0.089365423 0.15315363 0.021210566
-0.080596507 0.15127853 0.038064081
-0.075086832 0.11363634 0.04924988
-0.075714141 0.12889543 0.055677682
0.015571833 0.11596155 0.036178596
-0.03822422 0.17014429 0.0026705358
-0.077677459 0.15042362 -0.0053303298
-0.067959875 0.15970087 -0.0056674387
-0.072840691 0.15176609 0.040596254
-0.076017201 0.15654212 0.029216757
0.01788795 0.12874535 0.021501318
-0.061749101 0.15602869 0.032077126
-0.072010159 0.15767661 0.026083907
-0.012861371 0.12703329 0.029027559
0.0094874501 0.13317207 0.014628917
-0.068600267 0.16370298 -0.01155307
0.0026392341 0.13374916 0.011064075
-0.085678518 0.15504661 0.019161668
-0.084253907 0.15555418 0.019569481
-0.036801815 0.12769586 -0.0030532815
-0.076402158 0.16297166 -0.030429246
0.022596955 0.12764838 0.01596497
0.023434639 0.12717333 0.016229138
0.02425766 0.12667224 0.016494105
-0.027645886 0.1265814 0.018671101
-0.025406182 0.12656945 0.019407995
-0.06499815 0.083374441 0.044511504
-0.063968778 0.083424777 0.044954211
-0.062969327 0.083431542 0.045210421
-0.061948955 0.08348009 0.04534642
-0.060959876 0.083451301 0.045248538
-0.059969068 0.083459944 0.045034669
-0.058968902 0.08346343 0.044809252
-0.057967603 0.083460778 0.044792358
-0.056958735 0.083481759 0.0450215
-0.055921793 0.083528817 0.045428626
-0.054905713 0.08356905 0.045904502
-0.053888977 0.083606869 0.046209268
-0.05289644 0.083620131 0.046321377
-0.051912546 0.083619297 0.046144396
-0.0509395 0.083588928 0.045755025
-0.049943626 0.083539814 0.045268446
-0.048952281 0.083537728 0.045090836
-0.047951519 0.083541036 0.045054477
-0.046957076 0.083550692 0.044978287
-0.045952857 0.083524942 0.044732012
-0.044982255 0.083524376 0.044378147
-0.044002175 0.08348003 0.04383444
-0.043029845 0.083443642 0.043160178
-0.042039275 0.083426118 0.042911544
-0.04105109 0.083425373 0.042688936
-0.040023625 0.083459198 0.042940754
-0.039002836 0.083502144 0.04342515
-0.037975967 0.083551705 0.043852746
-0.036974609 0.083578765 0.044066042
-0.03598839 0.083584368 0.044035047
-0.035002172 0.083561242 0.043794177
-0.034039557 0.083553255 0.043437414
-0.03306371 0.083508879 0.04277508
-0.0320611 0.08345449 0.042167556
-0.031073272 0.083449572 0.041802797
-0.030093193 0.08343187 0.041721787
-0.029227376 0.083420128 0.042130023
-0.028022528 0.083628237 0.044174761
-0.08646369 0.10795224 0.010068258
-0.086285025 0.10794976 0.0090549346
-0.089924783 0.11762136 0.032253969
-0.085328013 0.11064887 0.023030546
-0.086608648 0.10795179 0.011086939
-0.086091489 0.10794032 0.0080459937
-0.086721033 0.10116443 0.0050909631
0.00040775537 0.13337222 0.0061141811
-0.018412948 0.084532052 0.056409005
-0.01740998 0.08456853 0.05687172
-0.016385615 0.084596992 0.057151176
-0.015396535 0.084601492 0.057178006
-0.014406562 0.084589213 0.056863457
-0.013406634 0.084547132 0.056397863
-0.01242429 0.08457455 0.056396484
-0.011416852 0.084596366 0.056632504
-0.010403454 0.084614277 0.056807674
-0.0094051361 0.084632009 0.056927159
-0.0083982348 0.08464691 0.057028428
-0.0073922873 0.084653109 0.05698555
-0.0063958168 0.084651411 0.0568939
-0.0054214597 0.084631681 0.056555673
-0.0043742061 0.084597468 0.056091242
-0.0034351945 0.084615648 0.055986419
-0.0024332404 0.084637284 0.056198146
-0.0014208555 0.084651023 0.056323893
-0.00041532516 0.084660321 0.05638326
0.00058203936 0.084662437 0.056285277
0.0015810132 0.084660709 0.056207933
0.002584219 0.084664106 0.056168467
0.0035842061 0.084657401 0.056034185
0.0045782924 0.084650069 0.055857927
0.0055710673 0.084648818 0.055672046
0.0065733194 0.084631145 0.055434611
0.0075533986 0.084623814 0.055113319
0.0085308552 0.084607095 0.054685295
-0.067424178 0.15465254 0.036216039
0.013549805 0.11735851 0.035786323
-0.088020444 0.1270155 0.0021509044
-0.0032221675 0.13315848 0.013424275
-0.078829229 0.12454137 0.053419478
-0.0073059201 0.11739415 0.039496683
0.041210055 0.10646081 0.0042372253
0.017527699 0.11736372 0.03512504
-0.00024753809 0.11605734 0.040534887
-0.0012358427 0.1160194 0.040510044
-0.039616108 0.11841321 0.033289105
0.020277917 0.08434701 0.049510501
-0.020513415 0.11856195 0.035411753
-0.0073480606 0.11876404 0.03861044
0.008580327 0.11877444 0.037099339
-0.049737692 0.15677178 0.011700487
-0.025315225 0.12688002 0.00065726228
-0.027710557 0.11978146 0.031182563
-0.016489089 0.11996648 0.035440139
-0.046997786 0.16562071 0.0067343339
-0.04575038 0.12106884 0.029985089
-0.081556857 0.14073372 -0.00015250221
-0.070145935 0.14433986 0.047794282
-0.081731141 0.14489159 0.0018635616
-0.010623336 0.17182615 -0.024062091
-0.072705269 0.12607491 0.055478878
0.040250778 0.086754918 -0.012804678
0.0082014799 0.12675518 -0.0096193422
0.044346631 0.098216385 0.0030572582
-0.074736953 0.13173035 0.055357341
-0.069315851 0.14852187 0.044210251
-0.071690142 0.12327045 0.055748664
0.038789034 0.10356876 -0.0076591838
0.044482172 0.096723974 0.016043933
-0.041511059 0.11561587 0.035469972
0.041877568 0.10073668 0.022192594
0.03903687 0.11054876 0.013364375
-0.03915 0.17015071 0.0033279303
0.041906655 0.10371065 0.00020097941
-0.03403157 0.12869781 0.0050787367
-0.069319576 0.16127378 -0.0060993303
-0.068625569 0.16050333 -0.0058753882
-0.062667131 0.15783775 0.023183379
0.015474796 0.13036579 0.02073692
-0.06375885 0.15633887 0.031462781
-0.038076997 0.12948015 0.015389451
-0.06042099 0.15522638 0.033956993
0.013209283 0.13202068 0.015803916
-0.069293529 0.16447641 -0.011777503
0.0037469864 0.13380077 0.011416658
-0.087074697 0.15445417 0.018755732
-0.069800496 0.16872601 -0.0557843
-0.03017807 0.12591106 -0.00093890727
0.0209499 0.12864661 0.015444057
0.021788359 0.12817955 0.01570884
-0.073199809 0.15767035 0.0041021034
-0.072280496 0.15769809 0.0044598617
-0.0025915504 0.10289761 0.044151835
-0.069015741 0.16554029 -0.014520044
-0.068267584 0.16487795 -0.014280098
-0.064956188 0.084839761 0.045107044
-0.063958883 0.084857076 0.045491427
-0.062939823 0.08489126 0.045662239
-0.06193763 0.08491385 0.045716718
-0.060947537 0.084891349 0.04560601
-0.059958041 0.084898621 0.045385286
-0.058966935 0.084872037 0.04513628
-0.057965636 0.084883153 0.045050688
-0.056954145 0.084896713 0.045126624
-0.055935323 0.084925085 0.045466386
-0.054910541 0.084968626 0.045913562
-0.053901136 0.084998935 0.046263456
-0.052902997 0.085013807 0.046376221
-0.051917434 0.084991306 0.046140894
-0.05092293 0.084988832 0.045947127
-0.049928129 0.084981084 0.045780338
-0.048931539 0.084990829 0.045722276
-0.047931015 0.084972501 0.045596123
-0.046936393 0.084969223 0.045417756
-0.04595232 0.084975272 0.04520848
-0.044956744 0.084970593 0.045034364
-0.043989241 0.084946305 0.044451181
-0.043023825 0.084902048 0.043761075
-0.042035222 0.084876388 0.043329701
-0.041040897 0.084847391 0.042897955
-0.040030718 0.084872812 0.043116957
-0.038993299 0.084925324 0.04368395
-0.037976682 0.084958017 0.04401952
-0.036973357 0.084982723 0.044216298
-0.035985827 0.084985733 0.044214252
-0.034999669 0.084979445 0.044046454
-0.03404212 0.084958166 0.043576237
-0.033054173 0.084904492 0.042820714
-0.032070577 0.084856987 0.042171232
-0.031082273 0.084843367 0.041872472
-0.030102849 0.084839791 0.04189197
-0.029185951 0.084863812 0.04246261
-0.027899384 0.085118473 0.044765368
-0.071701378 0.17862959 -0.05563724
-0.088087082 0.10259694 0.010145264
-0.088450789 0.10260254 0.011179087
-0.085908473 0.10520113 0.0050521158
-0.085811615 0.10793367 0.0071400087
-0.088820159 0.10128883 0.021170141
-0.088985294 0.10129654 0.020182079
-0.00075513124 0.13320559 0.0057397578
-0.018427074 0.085909516 0.056304641
-0.017416358 0.085947752 0.056758318
-0.016406417 0.085966647 0.056946166
-0.015407562 0.085984617 0.057075232
-0.014386952 0.085975379 0.056686081
-0.013442516 0.085943162 0.056266032
-0.012435853 0.085958451 0.056352001
-0.011431038 0.085978389 0.05655659
-0.010416329 0.085994422 0.056700662
-0.0094105005 0.08600536 0.056768633
-0.0084126592 0.086017281 0.056782793
-0.0074087977 0.086026251 0.056755744
-0.0064104795 0.086026639 0.056643702
-0.0054215789 0.086008132 0.056359701
-0.0044461489 0.085988015 0.055926837
-0.0034438968 0.085997462 0.055950604
-0.0024394393 0.086025357 0.056216016
-0.0014274716 0.086036623 0.056346573
-0.00042712688 0.086058319 0.056382306
0.00057458878 0.086051434 0.056300804
0.0015761256 0.086054832 0.056262612
0.0025777817 0.086057335 0.056225508
0.003577292 0.086062551 0.056208633
0.0045739412 0.086059779 0.056070026
0.0055717826 0.086056799 0.055914037
0.0065737367 0.086042881 0.055679135
0.0075594783 0.086032122 0.055371091
0.0085404515 0.086012423 0.054953903
0.006622076 0.1333833 0.016538164
-0.085413635 0.10789162 0.0060302075
0.039055109 0.11052716 0.014362639
0.039098501 0.11057892 0.0093572866
-0.067709386 0.11905286 0.054516345
-0.072708309 0.11903119 0.054865364
-0.08818242 0.1147598 0.0091050677
-0.048597038 0.11831287 0.033506997
0.028657675 0.12153119 0.02351035
0.039850116 0.10922942 0.0063131545
0.01928395 0.085738271 0.049369097
0.02026695 0.08572039 0.048967943
0.021235287 0.085688829 0.048627719
0.012549102 0.11734885 0.036400214
0.0066084862 0.11880147 0.037602257
0.035520732 0.10905749 -0.0075039994
0.0047885776 0.13374013 0.011744807
-0.026708543 0.1198073 0.03140673
-0.015492678 0.12002242 0.035818275
-0.019268513 0.12811425 0.021255456
-0.046716511 0.12106645 0.03040711
0.010837018 0.13290718 0.013651896
-0.032500803 0.18050724 -0.0057365578
-0.064200044 0.15095124 -0.01564225
0.042511284 0.10370579 0.0051645134
-0.071705073 0.12608606 0.055478625
-0.064284444 0.17151271 -0.057680599
-0.088196814 0.099913299 0.024131617
0.044420421 0.098219335 0.0040505566
-0.073737234 0.1317398 0.055120565
-0.063959777 0.16200157 -0.032623731
-0.071277171 0.15757042 0.0047760326
-0.00053858757 0.12433407 0.034802623
0.044400454 0.096708328 0.017047727
0.036809325 0.10912099 -0.0045622531
-0.0025191903 0.12426239 0.035071254
-0.040118039 0.17013416 0.0037772227
-0.041138172 0.17012316 0.0039136503
-0.076180309 0.16713768 -0.016610673
-0.070877045 0.16247009 -0.0065764058
-0.070081085 0.16189793 -0.0063231084
-0.05734849 0.15585071 0.02912588
0.012811542 0.13150665 0.019894406
-0.064710975 0.15659758 0.031173229
-0.03903079 0.12969494 0.015088318
0.014103413 0.13165179 0.016083706
-0.07180509 0.16589965 -0.012569884
0.0069258809 0.13368312 0.012420598
-0.07205978 0.15861738 0.0016031992
-0.083974332 0.099673092 -0.0020727124
0.019224465 0.12950563 0.014898105
0.020072997 0.1290496 0.015164506
-0.0032525659 0.12668303 0.031989075
-0.080354571 0.15376827 0.033912215
-0.071352512 0.16710784 -0.015247958
-0.070591003 0.16668165 -0.015022809
-0.069759071 0.16619658 -0.014759539
-0.021127164 0.089642376 0.05354229
-0.077333927 0.12050936 0.053075835
-0.06507498 0.08624804 0.045445688
-0.063933849 0.086299688 0.045835242
-0.062939823 0.086305767 0.045946442
-0.061941922 0.086305499 0.045925409
-0.060943961 0.086316586 0.045858078
-0.05994916 0.086307824 0.04570771
-0.058956802 0.086307973 0.045511439
-0.057967484 0.086277485 0.045290917
-0.056960821 0.086305887 0.045289673
-0.05594784 0.086327046 0.045485407
-0.054910123 0.086370677 0.045882568
-0.053901911 0.086400002 0.046249025
-0.052910626 0.086412013 0.046397611
-0.0519045 0.086427093 0.046445366
-0.05090791 0.086433262 0.046425521
-0.04990989 0.08643654 0.046402097
-0.048909485 0.086438894 0.046362646
-0.047922194 0.086457938 0.046245787
-0.046925008 0.086429685 0.046010915
-0.045933306 0.086426616 0.045833379
-0.044951141 0.086398393 0.0454247
-0.04393369 0.086343855 0.044839852
-0.042989135 0.086326152 0.044124573
-0.042029679 0.08631438 0.043834902
-0.041029334 0.086267024 0.04324694
-0.04004252 0.086274385 0.043183096
-0.039004803 0.086326718 0.043718442
-0.037991703 0.08635661 0.044064861
-0.036980152 0.086380094 0.044236645
-0.035988152 0.08639136 0.044332147
-0.03500998 0.086389422 0.0441394
-0.034042954 0.086368471 0.04368788
-0.033066094 0.086332321 0.043021936
-0.032067299 0.086285859 0.042404816
-0.031074405 0.086275876 0.04209286
-0.03006047 0.086294621 0.042323872
-0.029102266 0.086315304 0.042888172
-0.027924836 0.086503714 0.044637121
-0.011655807 0.13091767 0.0022102427
-0.010388911 0.13130856 0.002620684
-0.068784028 0.17996268 -0.058441915
-0.087009728 0.1011757 0.0061139949
-0.092959046 0.12982765 0.015367978
-0.027481496 0.096636504 -0.026605172
-0.0030802488 0.13288927 0.0049862079
-0.0018569231 0.13310903 0.0053859726
-0.018460333 0.087277681 0.055982351
-0.017432868 0.087306172 0.056392401
-0.016418338 0.087328553 0.056689367
-0.015415192 0.087340683 0.056761354
-0.014434576 0.087344378 0.056546915
-0.01344651 0.087336659 0.056303248
-0.012434244 0.087351114 0.056447923
-0.01143235 0.08736366 0.056531783
-0.010434926 0.087372303 0.056525938
-0.0094292164 0.087375909 0.056538004
-0.0084285736 0.087382227 0.056496866
-0.0074239373 0.087395102 0.056586914
-0.0064252019 0.087403536 0.056567486
-0.0054231286 0.087390929 0.056286842
-0.0044466257 0.087378651 0.055981703
-0.0034444332 0.087390572 0.056073051
-0.0024397373 0.087408334 0.056215376
-0.0014385581 0.087425321 0.05618728
-0.00044041872 0.08742547 0.056131601
0.00056368113 0.08743003 0.056132242
0.0015634298 0.087431729 0.056096017
0.0025650859 0.087443501 0.056097105
0.0035655499 0.087447941 0.05605546
0.0045614839 0.087444484 0.055957213
0.0055629611 0.087444901 0.055826914
0.0065605044 0.087439597 0.055667534
0.0075472593 0.087426841 0.055363234
0.0085274577 0.087412298 0.055046909
0.0095269084 0.087397188 0.054682381
-0.025868297 0.12786674 0.0076650009
-0.0085023642 0.094121337 -0.036303945
0.031226635 0.11948708 0.022920217
-0.025505006 0.12809518 0.010656168
-0.074726075 0.1190089 0.054338813
0.045672476 0.088364393 0.015957542
-0.046631634 0.11828887 0.033004567
-0.043629587 0.11831659 0.033125233
-0.041621625 0.11836177 0.033320203
0.01924181 0.087090969 0.048760332
0.020216286 0.087064028 0.048438884
0.021206141 0.087047637 0.048143439
0.022193611 0.087039948 0.047855455
0.0056236386 0.11881065 0.037906751
-0.04404664 0.13032177 0.0018824916
-0.075753421 0.15710768 0.010587311
0.039232612 0.10922629 0.0013361797
-0.014491141 0.12008137 0.036210008
0.045083284 0.095404923 0.010007246
0.026921511 0.11786991 -0.0088494662
-0.075088561 0.16911826 -0.019235248
-0.0015258789 0.12425378 0.035017937
-0.037567198 0.11701986 0.033949584
-0.01466769 0.12414306 0.032120612
-0.070694029 0.12609482 0.055366173
0.039468527 0.093728185 -0.012727017
0.042846501 0.099398464 0.021138316
0.044469655 0.098197311 0.0060447622
-0.072763592 0.13173136 0.054685645
0.04591465 0.088465244 0.0059379712
-0.028237581 0.12743425 0.0069102142
-0.079914004 0.12453243 0.052962814
0.042489827 0.096520156 0.024145156
-0.091027051 0.12843111 0.040296771
